-0.142039 0.218567 -0.379854
0.043821 0.460225 -0.296487
-0.046811 -0.279204 0.264470
0.250303 -0.072337 0.008494
0.047235 -0.185000 0.473876
0.072686 -0.043427 0.443574
-0.067462 -0.075622 0.285888
-0.025064 0.463950 -0.038158
0.157303 0.406942 0.166247
-0.528337 -0.172827 -0.344419
-0.305831 0.065515 0.215933
0.138554 0.030982 0.160961
-0.201269 0.324360 0.004778
0.184745 -0.106522 0.366524
0.129963 -0.325742 0.010401
-0.212740 -0.489077 -0.035249
0.012664 0.151823 0.235702
-0.317788 -0.364412 0.235026
-0.296502 -0.325660 0.291713
-0.241855 -0.335026 -0.451213
0.042299 -0.438839 0.011499
-0.369404 -0.338023 -0.113015
-0.474488 0.114995 -0.172522
0.065817 0.252574 -0.383777
-0.168686 -0.214532 0.328118
0.083878 -0.381852 -0.209033
-0.079755 -0.070529 0.287211
-0.440954 0.040921 -0.333555
0.272714 0.049189 0.104315
-0.072536 0.394259 -0.093408
-0.005360 0.475651 -0.191845
-0.158748 -0.530659 0.059377
-0.088711 0.018865 0.269760
-0.116041 -0.157847 -0.365206
-0.303487 0.017032 -0.101028
0.059762 0.258339 -0.416957
0.272015 0.373548 -0.443858
-0.341963 0.053834 -0.126250
0.089699 -0.155588 0.097440
-0.017499 0.427799 0.047721
-0.373072 -0.342893 -0.262559
-0.154311 -0.200510 0.318415
-0.084501 -0.203920 -0.158292
0.015151 0.340898 0.111809
0.112933 0.411095 0.122188
-0.286876 -0.304512 0.294043
0.302198 0.078754 0.146144
-0.544036 0.026289 -0.218772
0.411311 0.017426 -0.095260
-0.018526 0.203151 -0.369438
0.280469 0.014552 0.131437
-0.460502 0.127027 -0.171250
-0.012253 -0.500418 -0.146582
0.174244 0.030577 -0.411786
0.154558 -0.301625 -0.005212
-0.032636 0.361892 -0.326393
0.085301 -0.403844 -0.034168
-0.315687 0.148565 -0.100971
0.276774 -0.063590 0.401193
0.063389 -0.025500 0.169447
-0.277349 -0.434401 -0.196794
-0.253078 0.152326 0.182867
0.248093 0.397841 -0.405535
0.102726 -0.134718 0.206167
0.073833 0.575373 -0.025918
0.151604 -0.122423 -0.372968
0.420668 0.164359 -0.308434
-0.357896 -0.334951 0.126299
-0.342426 -0.243418 -0.460666
-0.487223 -0.212595 0.031569
-0.275328 -0.313657 -0.453134
-0.138519 -0.457514 0.169303
0.141019 0.320434 -0.390691
-0.107460 0.046715 -0.456704
0.071898 0.585458 -0.093399
0.060263 0.582405 -0.129224
0.353975 -0.055043 -0.125859
-0.446437 -0.260700 -0.097831
0.238642 0.096237 0.438156
-0.149227 -0.502683 0.123589
0.207345 -0.141013 -0.145661
0.013613 -0.274539 -0.240012
0.114474 0.060242 0.231565
-0.065409 0.382528 -0.014569
0.043854 -0.219165 -0.394042
0.118163 -0.102957 -0.317326
-0.241490 -0.460220 -0.028699
-0.272026 0.076846 -0.409061
0.359709 0.297092 -0.425655
-0.146215 0.380612 -0.156517
-0.389519 -0.264671 0.261865
0.378584 0.127252 0.378191
-0.112314 0.396062 -0.021988
-0.505255 -0.212330 -0.274478
0.028578 0.170052 0.179546
-0.190674 -0.509520 -0.014426
0.009067 -0.110862 0.453548
-0.281175 -0.311901 0.302397
0.104702 0.416589 0.138295
0.091860 -0.056947 0.152216
0.409464 0.081643 0.044131
0.383948 0.267938 -0.390412
0.137648 0.473562 -0.333010
0.023917 -0.282090 0.023630
-0.087987 0.087151 0.179360
0.257655 0.330202 -0.440709
0.229609 -0.116724 0.102926
0.322287 0.036649 0.402968
0.368670 0.250785 0.145999
0.050150 -0.245905 0.057515
-0.578637 -0.010099 -0.024847
-0.079639 -0.511579 0.052005
0.039885 -0.276933 0.022428
-0.040230 0.240205 -0.403068
-0.026774 0.141554 -0.381285
-0.097887 -0.185584 -0.074167
-0.602155 -0.098940 -0.149580
-0.155164 -0.123816 0.003461
0.187241 -0.149564 0.429218
0.037390 -0.290156 -0.008141
-0.215884 -0.129379 0.308377
-0.124754 0.274822 0.052101
-0.061686 0.233037 0.131524
-0.063083 0.126605 0.244166
-0.584950 -0.086692 -0.241599
0.076299 -0.239539 0.370810
-0.252021 -0.025292 0.049415
-0.232488 0.299264 0.013817
0.102734 -0.251488 -0.068463
0.203409 0.253665 0.178787
0.271045 -0.008932 0.429639
0.003475 0.356164 -0.310551
0.019657 -0.089534 -0.446981
-0.336027 0.128610 -0.098108
-0.061649 0.321180 0.138345
0.234998 -0.216083 -0.115959
0.210691 0.143059 -0.422065
0.039122 0.341599 -0.346001
0.264133 0.119021 0.427033
-0.120778 0.342295 -0.076822
0.108238 0.188334 0.221643
0.090845 0.415959 -0.364092
0.379258 0.101485 0.058329
0.245866 -0.082767 -0.003840
-0.517689 -0.181800 0.039308
0.193138 -0.126863 0.369589
0.055675 -0.286619 -0.154592
0.207023 -0.068078 -0.359878
-0.506933 -0.204355 -0.359055
0.371587 0.132087 0.119134
-0.246549 0.051712 0.240931
-0.264941 -0.413559 -0.399476
-0.237907 0.035396 -0.338370
0.186251 0.392763 -0.419308
-0.088053 -0.174934 -0.461985
-0.008034 0.389176 0.103858
-0.123012 -0.158259 -0.037420
0.069858 -0.149795 0.221552
0.312326 0.162600 0.184666
0.134242 -0.285003 -0.260547
0.130340 -0.169541 0.453180
0.100652 0.451806 0.092176
-0.097695 0.247838 0.175206
-0.279757 -0.177287 -0.482266
0.096060 0.531102 -0.306735
0.368434 0.118323 -0.310774
0.053404 0.227666 -0.385755
-0.433458 -0.280646 -0.220084
-0.354696 0.103561 -0.095946
0.244263 0.109021 0.431764
-0.098766 -0.401614 0.341836
-0.433045 -0.270395 -0.035888
0.514686 0.165637 -0.234467
-0.294633 0.254074 -0.192501
-0.529723 -0.111485 0.165807
0.219581 -0.013341 0.456408
-0.342966 0.089210 0.003356
-0.107548 -0.167202 0.065854
-0.145583 -0.022796 -0.466951
0.102973 -0.015636 0.437065
-0.447385 0.093861 0.092301
0.232170 0.010263 0.107352
-0.354600 -0.045782 -0.434258
-0.034435 -0.240395 0.067012
-0.260581 -0.022922 -0.330817
0.008648 -0.043979 0.180756
0.099095 -0.336003 -0.252956
-0.172785 -0.103277 0.058233
-0.142382 0.324479 -0.099488
0.275348 0.101104 -0.384125
0.035883 -0.037494 0.252106
-0.456503 -0.258324 -0.229072
-0.225240 0.239829 -0.094574
0.028555 -0.195118 0.476794
0.062480 0.459063 -0.281961
0.229818 0.131078 0.400726
-0.162348 -0.393427 0.347735
-0.058946 -0.109878 0.285344
-0.462511 -0.029335 0.204498
0.139829 -0.340515 -0.099963
0.119836 0.144999 0.227965
-0.164964 -0.020372 0.188034
0.093959 0.405339 -0.371365
-0.104187 -0.188612 -0.235326
0.042894 0.486721 -0.213913
0.036336 -0.470686 -0.055403
-0.123772 -0.251538 0.326008
0.101664 -0.388863 -0.051399
0.094053 0.369182 0.133124
-0.054810 0.427058 0.009778
-0.381154 -0.319010 0.014896
-0.124716 -0.408636 0.335764
-0.363237 0.208865 -0.166767
-0.609961 -0.061291 -0.097711
0.140979 0.513213 0.071688
-0.132280 -0.556487 -0.056094
0.133133 -0.163355 0.367137
-0.439302 0.057767 -0.320479
-0.142198 -0.057440 0.291124
-0.059256 -0.221528 -0.030605
-0.090617 -0.212411 0.291589
0.325440 0.057807 0.069338
0.078688 -0.026886 0.235770
-0.300245 -0.393830 0.108900
-0.280424 -0.003365 -0.057185
-0.235197 0.191929 -0.219843
0.271419 0.036249 0.151223
0.251963 0.036055 0.440990
0.097061 0.425304 0.131125
-0.388858 -0.202101 0.274645
-0.518551 0.063348 0.051911
0.079952 -0.271191 0.149554
-0.262986 0.183282 0.147201
-0.067654 0.113225 -0.442625
0.066132 0.366822 0.122895
0.012608 -0.433989 -0.262317
-0.385022 -0.126594 -0.448302
0.074989 0.547362 -0.117705
-0.300780 -0.401015 -0.022075
0.061484 0.238384 0.214135
-0.362097 -0.328396 0.159732
0.407837 0.169960 0.210192
0.093072 0.576580 -0.194847
0.402347 0.277250 0.146757
0.201050 -0.152985 -0.067638
-0.191514 0.260754 -0.313228
0.255774 0.143343 0.185098
-0.086840 -0.542582 -0.032525
0.367709 0.177314 -0.377412
-0.050908 -0.303605 0.356106
-0.222066 -0.053906 0.066885
-0.385113 0.038383 -0.373338
-0.072489 -0.173691 -0.458550
-0.248228 0.107438 -0.288935
-0.071827 -0.343341 -0.405098
-0.067783 0.430846 -0.183085
-0.148193 0.330584 0.060084
-0.225671 -0.002150 -0.449219
0.146051 -0.197244 0.432182
0.167603 0.434096 0.133628
-0.442090 0.145578 -0.029454
-0.151785 -0.076825 0.296230
-0.461455 -0.005020 0.191055
-0.430960 -0.121917 0.244753
0.328193 0.063194 -0.336822
-0.023090 0.241237 -0.357348
0.257487 0.151804 -0.380415
-0.157826 -0.145879 -0.470926
0.204631 -0.170773 -0.282304
-0.188180 -0.374611 0.352857
0.014211 0.274058 -0.402435
0.161344 -0.210077 0.112097
0.063366 -0.111030 0.394922
-0.410392 -0.301754 -0.189768
0.366137 0.329133 0.174467
0.338695 -0.007330 -0.046954
0.294334 0.270257 0.250866
-0.078293 0.391681 -0.119555
0.111862 0.221680 0.215085
-0.273418 0.230699 0.080088
-0.329785 0.093703 -0.212643
0.345272 0.252662 -0.426007
0.002787 -0.119235 -0.446063
-0.177791 0.286015 -0.140022
-0.114155 0.147865 -0.421983
-0.484166 -0.221227 -0.065068
-0.234040 0.113564 0.107923
0.137452 0.498570 -0.363596
-0.110635 0.247689 0.171257
0.398379 0.116819 0.054492
-0.451984 -0.061342 0.220757
-0.145788 -0.443832 0.186805
-0.546385 -0.017202 -0.267305
-0.382760 -0.111851 0.273248
0.401147 0.143011 0.229950
0.388704 0.163299 0.159004
-0.164540 0.301662 -0.097420
-0.370509 -0.152938 0.285056
0.148404 0.463928 -0.347129
0.004501 0.434642 -0.238367
-0.604611 -0.053012 -0.128911
0.288314 -0.061262 -0.279142
-0.005283 -0.068975 0.179074
-0.196577 -0.388800 0.327386
-0.098571 -0.538735 -0.171011
-0.313731 -0.394702 -0.136256
0.113593 0.392024 -0.361597
-0.038299 -0.269099 0.260963
0.083914 -0.398748 -0.147106
0.270540 -0.083546 -0.122333
0.279689 -0.021636 -0.323977
0.180698 -0.040330 0.187292
-0.080966 -0.054469 0.284407
-0.208496 0.132772 -0.404863
-0.004812 0.449944 0.030129
0.106888 -0.273162 0.123558
0.322493 0.066709 0.121849
0.197606 0.411721 -0.386622
-0.097996 -0.530749 -0.208688
-0.022080 -0.185633 0.485905
-0.550760 -0.145319 0.085040
0.118810 -0.237633 -0.074148
-0.085292 -0.234001 0.397708
0.062809 -0.111606 0.231249
0.191752 0.170280 -0.426217
0.074417 0.335373 -0.392015
-0.087968 -0.512136 0.061989
-0.479413 -0.232593 -0.178503
-0.123843 -0.311718 -0.440451
0.387839 0.099240 -0.272036
0.295189 0.154295 -0.367822
-0.151112 -0.412055 0.235812
0.419819 0.099310 -0.275055
0.102742 -0.161458 -0.385765
0.148321 -0.098210 0.186971
-0.473642 0.001685 -0.342001
0.160686 0.227082 0.210346
0.435890 0.167571 0.063163
-0.588775 -0.084454 -0.229769
0.023340 -0.128997 -0.434971
0.502395 0.169125 -0.249456
0.144261 0.077050 -0.432335
0.116805 -0.170506 -0.254802
-0.239037 -0.056153 -0.325369
0.298954 0.164865 -0.393675
-0.064201 0.231103 -0.342737
-0.132095 -0.548253 -0.169133
-0.463102 -0.247523 -0.393522
-0.132898 0.344970 -0.267206
0.353144 0.125106 0.131512
0.425636 0.081041 -0.047467
0.211785 -0.142484 -0.073529
0.184933 -0.085843 0.369977
0.243616 0.310898 -0.433791
-0.074314 -0.221296 -0.447990
-0.125142 0.122824 0.237560
0.010237 -0.169106 0.249632
0.095616 -0.241705 0.153523
-0.420008 -0.271830 0.149969
-0.210933 -0.452504 0.203951
0.070250 -0.345117 0.106003
-0.118528 -0.551332 -0.143650
-0.063690 -0.484453 0.100809
-0.249882 0.210663 0.125450
0.226308 -0.164487 0.067241
-0.270492 -0.447521 -0.309852
0.063560 0.492868 -0.246042
0.069204 0.428620 0.115060
-0.428806 -0.288426 -0.403621
0.139273 -0.114453 0.088726
-0.101618 0.303411 -0.333397
0.042225 -0.044542 -0.447159
0.099926 -0.246135 0.400205
-0.418330 -0.252429 0.245349
-0.392589 -0.303186 0.089040
0.340278 -0.012866 -0.066180
-0.425449 0.046693 -0.339222
-0.487653 -0.064373 0.193679
-0.446179 0.106174 -0.250725
0.500676 0.148865 -0.270122
-0.436211 0.155464 -0.057948
0.102496 -0.175575 -0.380713
-0.106877 -0.079176 0.292889
0.183514 -0.141284 0.439579
-0.182253 0.282811 -0.089965
-0.171432 0.312344 -0.272864
0.081024 -0.081183 0.398686
-0.472162 0.131668 -0.127460
-0.524364 -0.186640 -0.159896
-0.003692 0.047038 -0.390195
0.318226 -0.077676 -0.006898
0.056888 0.479845 -0.295349
0.199153 0.071202 0.152572
0.072882 0.585621 -0.165559
-0.304124 0.256562 -0.036904
0.262914 0.007039 0.081098
0.018742 -0.110903 0.465384
0.112058 0.118017 0.232626
-0.137311 -0.053137 0.192829
0.132183 0.210260 0.215689
-0.274813 0.005504 0.256989
-0.052217 -0.340585 -0.396161
-0.472598 -0.144993 -0.397460
0.434250 0.050904 -0.127096
-0.195384 -0.508790 -0.077942
0.181398 -0.145668 0.002328
-0.339400 -0.376661 -0.388203
0.230317 0.444332 -0.400818
-0.334543 -0.115028 -0.461508
-0.117674 -0.344408 -0.425687
-0.168749 0.208253 0.077479
0.156382 0.224148 -0.429705
0.196445 -0.254005 -0.167357
-0.318040 -0.396693 -0.247191
-0.139919 -0.148230 -0.146988
0.171843 -0.081013 -0.376874
0.003700 -0.450041 -0.256251
-0.280542 -0.429072 -0.373793
-0.218401 -0.422458 -0.392334
0.063549 0.151357 -0.396174
-0.019468 0.418112 0.058397
-0.237495 0.048124 -0.430161
-0.268363 -0.227770 -0.478491
-0.390305 -0.148576 -0.447024
-0.213965 -0.073612 -0.131190
0.114303 -0.055851 0.396504
0.232968 -0.120420 -0.065416
0.111633 0.563365 0.044107
-0.242574 0.278879 -0.230498
0.106201 0.395096 0.126614
0.083345 -0.387466 -0.195548
0.413378 0.054186 -0.008997
0.373447 0.134750 0.191691
-0.263581 -0.445331 -0.148799
-0.457447 0.085152 -0.274539
-0.320027 -0.275390 0.282997
0.509733 0.150236 -0.124931
-0.242274 -0.031595 0.098425
0.408233 0.021250 -0.141669
-0.419356 0.121799 0.083357
-0.127172 0.255415 -0.278563
-0.032773 0.115297 0.182119
-0.441065 -0.157353 -0.417493
-0.039957 -0.008289 -0.386098
-0.338426 -0.257851 0.280893
0.091048 0.559719 -0.092652
-0.419228 -0.263151 0.226764
-0.112679 -0.042789 -0.467018
0.367282 0.012692 -0.129965
0.119310 0.217318 0.179204
0.202128 0.331948 0.191287
-0.337593 0.126191 -0.121933
0.074928 0.436420 0.084119
0.145661 -0.259997 -0.271373
-0.572439 0.015407 -0.140660
0.002849 0.314907 0.164630
-0.148366 -0.349486 -0.434677
0.004252 0.098745 0.246437
-0.066471 0.335635 -0.327721
-0.287193 -0.395413 0.230769
0.126156 0.350588 0.177121
-0.101150 0.323284 -0.316337
-0.449365 0.148630 -0.131431
0.362933 0.294371 0.159393
-0.266540 -0.142824 -0.479011
-0.191587 0.013379 0.174743
-0.206712 -0.310212 0.395099
0.174822 -0.293038 -0.118581
0.146494 -0.189562 -0.188696
0.145818 -0.147612 0.454500
-0.547258 0.045183 -0.174429
0.251310 0.431479 0.194772
-0.210916 -0.492747 -0.066906
-0.004466 0.364944 -0.297859
-0.107042 -0.262404 0.349686
-0.280602 -0.332805 0.307608
0.251429 -0.080986 -0.305581
0.164608 0.161747 -0.430010
-0.109585 -0.357075 0.438138
0.373174 0.231639 0.139012
0.289677 0.136029 0.333879
-0.489629 -0.212425 -0.006961
0.491808 0.171945 -0.261457
-0.078482 0.066956 -0.382142
0.176980 0.171604 -0.397368
-0.205610 -0.459515 0.191100
0.322646 -0.099876 -0.071633
0.514751 0.165610 0.027980
0.273430 0.084402 0.167130
-0.255464 0.045359 0.137126
-0.151011 -0.362043 0.398854
-0.157506 -0.129781 -0.131208
-0.024255 0.182715 -0.372610
-0.519751 -0.026344 -0.312271
0.024798 0.508757 -0.034682
-0.240882 -0.316847 0.351992
-0.107593 0.109128 -0.364511
-0.037139 -0.251652 -0.181999
-0.404246 -0.098131 0.257846
0.037009 -0.083745 0.424902
-0.202517 -0.089090 -0.199014
-0.219127 0.330949 -0.127479
0.515939 0.176044 0.020933
-0.300267 -0.353284 0.279725
-0.268026 -0.186335 0.309120
0.278306 0.079151 0.343036
0.057267 -0.213480 0.210018
0.170851 -0.162614 -0.196502
-0.042485 0.367096 0.038597
0.029019 0.269453 0.151081
0.500744 0.143439 -0.131722
-0.267483 -0.025518 -0.272532
-0.219207 -0.491483 -0.310584
-0.397373 -0.300395 0.057132
-0.275244 -0.379225 0.275439
0.147331 -0.275150 0.064687
-0.102003 0.329986 0.013539
0.018802 0.322256 0.164803
-0.075251 -0.217654 -0.253367
0.124830 0.222953 -0.432203
-0.287836 0.277972 -0.089465
0.020821 0.513089 -0.172205
0.460942 0.115042 -0.051623
0.209275 -0.097911 0.364828
-0.259518 -0.109511 0.302461
-0.062396 -0.266109 0.273733
-0.471488 -0.226344 0.063293
0.153178 0.368171 -0.383147
-0.045239 -0.371340 0.368131
-0.419096 -0.081640 0.245930
-0.042138 0.371944 -0.256188
-0.005781 -0.380080 -0.333791
-0.271793 0.197093 -0.316965
0.263348 0.036164 -0.322299
-0.307629 0.029337 0.035335
-0.005734 -0.264686 -0.263771
-0.439619 -0.264396 -0.044766
-0.017501 -0.113529 0.171758
-0.504159 -0.215049 -0.311888
-0.467599 -0.224470 0.157106
0.272849 0.170648 0.155482
0.061631 -0.197480 0.372382
-0.596874 -0.040946 -0.141897
-0.226982 0.299661 -0.208053
-0.081833 0.283752 0.157545
-0.182855 -0.048153 0.289495
-0.011835 -0.107051 -0.366136
0.065202 0.436335 -0.302000
-0.110993 -0.397739 0.374050
-0.539487 -0.019549 0.097919
-0.162323 -0.331020 -0.448654
-0.316162 0.118445 0.014347
-0.250389 0.139318 0.192587
0.195088 0.246745 -0.424716
-0.077429 -0.100121 0.190425
-0.171483 0.363561 -0.149327
-0.467921 -0.078002 0.213235
-0.525117 -0.193154 -0.301140
0.173909 0.338365 -0.417025
-0.036352 -0.208578 -0.435513
-0.302000 0.027408 0.071023
-0.237992 -0.429587 -0.387993
-0.515848 -0.185021 0.014444
-0.031144 0.359904 -0.279281
0.040241 -0.293686 0.174974
0.470193 0.202166 0.109291
0.022246 -0.114451 0.158595
-0.101435 -0.533530 0.017925
0.230683 0.170776 0.198662
0.000428 -0.201921 -0.420588
0.372419 -0.023070 -0.048880
-0.519326 -0.180862 0.026708
-0.009252 0.425877 0.057216
-0.408140 -0.310284 -0.298410
0.101330 -0.308864 0.101672
-0.160818 -0.101906 0.167049
0.070101 0.137251 0.184070
-0.136346 0.127365 0.232381
-0.223128 0.316761 -0.035398
0.129701 0.546663 0.031123
0.272270 -0.144045 -0.010654
-0.145074 -0.544180 0.002803
-0.230805 -0.041955 0.110121
0.266397 -0.175916 -0.108381
-0.056611 -0.235501 -0.240269
0.291260 0.015843 -0.279485
-0.123165 -0.045639 0.192684
-0.037790 -0.235418 0.085328
0.491583 0.190234 0.080338
0.196618 0.144560 -0.392420
0.278234 0.255945 0.262187
0.147934 0.479552 -0.337135
0.008591 0.243974 0.205340
-0.132113 0.110305 -0.356315
-0.042567 0.161062 0.233442
-0.249382 0.075904 -0.310449
-0.394778 0.116991 0.111228
-0.099510 -0.113126 0.297131
0.290121 0.202632 -0.410565
0.066165 -0.087523 0.402325
-0.152396 -0.144127 -0.302782
-0.134551 -0.466435 0.158275
0.447271 0.156998 -0.274361
0.148857 -0.247112 -0.279690
-0.249949 0.134113 -0.267554
-0.242688 0.144112 -0.380635
-0.221701 0.220027 0.001300
-0.017147 0.471072 -0.179112
0.052342 -0.360471 -0.285338
-0.027304 -0.261614 0.375327
0.394125 0.038859 -0.128460
0.063848 0.535318 -0.113425
-0.196550 -0.093516 -0.172475
-0.276622 0.282619 -0.067173
0.130358 0.070465 0.172997
-0.315045 -0.362818 -0.425169
-0.013496 -0.490320 0.017723
0.433998 0.149545 -0.330395
0.109007 0.114965 0.183961
-0.211112 -0.497016 -0.142063
0.239917 -0.048776 0.056068
0.392533 0.018931 -0.207616
-0.297711 0.004295 -0.258713
-0.436205 -0.239850 0.238580
0.295568 0.239345 0.315472
0.222122 -0.238335 -0.080313
-0.193934 -0.503810 0.030871
-0.333794 -0.036723 0.261937
0.330495 0.149268 -0.352093
-0.057937 -0.451789 0.141219
0.133647 0.101198 0.227771
-0.022223 -0.342480 0.214530
-0.562324 -0.136022 0.061413
-0.095850 0.329542 -0.236579
0.001700 -0.282894 -0.052808
0.021764 0.469606 -0.014849
-0.124508 0.240975 0.171088
-0.180840 0.339068 -0.197341
0.443222 0.226994 0.102023
0.043778 -0.079226 -0.358909
0.292046 0.015797 0.335018
-0.116128 0.320782 -0.212401
0.310200 0.095824 0.147099
0.099448 -0.016699 0.160740
-0.171157 0.289474 -0.067066
-0.461829 -0.242853 -0.053725
0.223136 -0.099644 -0.220197
-0.199596 -0.058981 -0.372054
0.319511 0.066970 0.324870
0.471257 0.145032 -0.232965
-0.000484 0.260707 0.143418
0.299981 0.177434 0.204218
-0.123324 -0.110974 0.191147
0.039863 0.397103 -0.310085
0.057191 -0.086609 0.474887
0.355974 0.252510 0.220339
-0.598301 -0.057422 -0.018911
0.055569 0.407217 0.123737
-0.055250 -0.113857 0.182557
0.266233 -0.109392 0.064227
-0.215302 -0.062544 -0.468338
0.506971 0.152364 -0.158214
-0.575173 -0.125088 0.028507
-0.028602 0.136188 0.241012
-0.381323 -0.333076 -0.233646
-0.009847 0.044439 0.257678
-0.057449 0.357553 -0.253598
0.265702 0.172447 0.356576
0.298871 0.379791 0.202794
-0.025534 -0.408408 -0.330090
-0.190387 0.067061 0.153556
-0.443168 -0.266954 -0.149960
0.165120 0.040083 0.399940
0.120651 0.458683 0.100369
-0.503386 -0.040986 -0.336716
-0.405884 -0.031115 -0.411347
0.345014 0.007867 -0.027015
-0.369655 -0.329631 0.028637
0.078970 -0.394758 0.004579
-0.047395 -0.086391 0.186424
0.356300 0.118799 0.389632
-0.050839 0.013323 -0.459937
-0.086996 -0.196699 0.438360
0.409428 0.060271 -0.057236
0.400431 0.106823 0.043262
-0.194869 -0.209297 0.322899
0.336042 0.011883 0.002477
-0.115911 0.115676 0.161365
0.114813 0.425420 0.138972
0.295122 0.067066 0.146769
-0.023627 -0.257670 -0.042449
0.105521 -0.252333 0.137853
-0.256645 -0.000530 -0.441813
-0.296943 0.004250 -0.222352
-0.463192 -0.116680 0.222794
-0.210481 0.251490 -0.075452
-0.315207 -0.402287 -0.298735
-0.314583 -0.192126 0.297356
0.209472 -0.194291 -0.254514
0.444285 0.059640 -0.120826
-0.508237 -0.046053 0.158712
0.133681 0.506748 -0.354182
-0.552157 -0.035341 0.089355
-0.083540 -0.127183 -0.374558
0.041517 0.531291 -0.031699
0.334581 0.131789 -0.342192
0.051119 -0.389686 0.085370
0.005125 -0.137834 -0.347549
-0.073534 0.336916 -0.257516
-0.066674 -0.033415 0.278757
0.489645 0.193168 0.048842
-0.030657 -0.351112 0.358236
0.304361 -0.114575 -0.152260
0.278303 -0.077145 -0.114657
0.287306 -0.065287 0.075733
-0.210892 0.228900 -0.196108
-0.547316 -0.147495 0.101060
-0.112509 -0.171779 -0.353546
-0.308627 0.149594 -0.332203
0.048790 0.513315 -0.166481
0.135475 -0.258758 0.103143
0.046064 0.450287 0.041248
-0.487573 -0.033556 0.179535
0.500033 0.140618 -0.109974
0.235410 -0.149351 0.069027
-0.536128 -0.180390 -0.252567
0.218900 -0.148230 0.092637
-0.293657 0.098470 0.065715
0.024888 0.070683 -0.391727
-0.435775 -0.287234 -0.381267
0.109057 -0.142806 0.374155
0.002477 0.255030 0.197983
-0.055285 -0.069258 -0.380600
-0.355052 -0.145117 -0.463143
-0.354628 -0.100943 -0.452478
0.218670 -0.240009 -0.105705
-0.081522 -0.184130 0.144132
-0.373665 -0.340012 -0.222283
0.125619 -0.237661 -0.315202
-0.231706 0.315617 -0.065480
-0.413861 0.141224 -0.230544
0.429753 0.133570 0.075277
0.017672 0.193931 -0.382540
-0.119014 -0.541285 -0.203196
0.379371 0.131277 0.081071
0.443549 0.092280 -0.153539
-0.048406 -0.229726 0.014667
-0.049162 0.440542 -0.016125
0.179971 -0.257244 -0.222179
-0.270876 -0.015612 -0.111235
0.173239 0.090735 0.165436
-0.246155 0.176730 -0.225457
-0.179425 -0.083436 0.298042
0.234537 -0.188600 -0.216092
0.103630 0.081086 -0.439287
0.180287 0.178875 0.180404
-0.314948 0.157885 -0.320998
-0.561719 -0.149299 -0.156805
-0.025588 -0.218052 -0.321935
-0.196355 -0.096279 -0.217752
0.205621 -0.218676 0.025377
-0.091592 -0.097894 -0.379145
0.088163 0.210834 0.178686
-0.207668 -0.487738 0.075075
0.148408 0.228165 -0.402252
-0.112133 0.340680 -0.177580
-0.127998 0.270244 -0.265290
-0.196374 -0.489893 0.132773
0.054369 -0.180991 0.223837
-0.446333 -0.128048 -0.414683
0.287507 -0.022534 -0.314059
0.138134 0.281961 -0.422147
0.072037 -0.253557 0.010014
-0.250055 -0.452723 -0.045541
0.293904 0.337665 0.175024
-0.244992 0.072607 0.127993
-0.074658 -0.241360 0.392838
0.200227 -0.139388 0.430904
-0.037294 0.343734 0.068708
0.195309 0.086557 0.422426
-0.323101 0.043145 0.222721
0.369422 0.229673 0.246346
-0.074817 -0.204092 -0.453216
-0.492277 0.066237 0.084378
-0.034858 0.199554 0.218859
0.191960 0.404521 -0.421209
-0.436401 -0.199786 0.250682
0.195276 -0.083226 0.066889
-0.509814 -0.194801 -0.051873
0.478264 0.109301 -0.014991
-0.054753 0.029600 -0.459757
-0.175075 -0.492605 0.140575
0.391171 0.203131 0.251128
-0.318224 -0.036636 -0.439775
-0.166463 0.347967 0.008734
0.145949 -0.173567 -0.219874
0.169848 0.008279 0.390579
0.054558 -0.288105 0.430843
-0.384667 -0.325040 -0.150958
0.294491 0.035307 -0.297024
0.067771 0.324683 0.142242
-0.026886 0.356246 0.066127
0.180437 0.144430 -0.393840
-0.206120 -0.078158 -0.073907
0.408605 0.034389 -0.190653
-0.242872 0.224365 0.114436
-0.013266 -0.481715 -0.234449
-0.180725 -0.522115 -0.260996
0.109641 -0.239293 0.409745
0.204676 -0.064986 0.367094
-0.106370 0.404270 -0.041016
0.000296 0.328341 -0.327856
-0.077854 -0.208501 -0.123015
-0.461039 0.108044 -0.216793
0.372350 0.204055 0.130440
-0.223340 -0.067821 -0.194107
-0.347868 0.061850 -0.108974
-0.562128 -0.008361 -0.211091
-0.539471 0.001859 -0.264781
-0.150995 -0.136761 -0.139728
0.206957 -0.040341 0.090169
-0.456279 -0.131930 0.229643
0.050767 0.431614 0.065803
0.047315 0.360150 -0.340386
-0.585941 -0.053410 -0.196806
0.330854 0.290502 0.166358
0.394545 0.118190 0.258009
0.131100 0.102598 0.179287
0.415781 0.074952 -0.194620
-0.175601 0.089628 0.241656
0.446138 0.180078 -0.357194
0.502413 0.152431 -0.173603
-0.090615 -0.278549 -0.436559
0.393388 0.069211 0.052463
0.239328 0.320893 0.174778
0.154008 -0.193377 0.401468
-0.379671 -0.341287 -0.389790
-0.354830 0.075175 -0.095962
-0.413534 -0.182180 0.263330
-0.492518 0.025124 -0.310200
0.276019 0.066331 0.160263
-0.231761 0.282748 -0.241019
0.181265 -0.036116 0.379924
-0.066030 0.289677 -0.366462
0.375458 0.139579 0.090238
-0.603412 -0.102539 -0.123074
-0.550312 -0.045061 -0.279612
0.270143 0.243229 0.269737
-0.086936 0.403285 -0.215947
-0.450431 -0.239996 0.181356
-0.029699 -0.483211 0.061687
-0.034642 0.352040 0.125443
0.044151 0.055373 0.187097
-0.244261 -0.447799 0.136516
-0.046242 -0.429672 0.157824
-0.528779 -0.170398 0.045548
0.005917 0.387413 -0.289626
0.028192 0.527447 -0.088730
0.011829 -0.482719 -0.150438
-0.579866 -0.023654 0.005344
-0.447692 -0.250695 0.050609
-0.166193 -0.125715 -0.209696
0.288125 -0.103319 0.024660
-0.066411 0.191592 -0.415968
0.240288 0.055302 0.359709
0.241526 -0.164382 0.032893
-0.434348 -0.257277 0.156942
-0.118777 0.103824 0.165175
-0.445977 -0.223066 0.236424
0.045915 0.259049 0.161342
0.155084 -0.322979 -0.089307
-0.478082 -0.201868 0.206371
0.094198 -0.227469 -0.211323
0.175614 -0.020476 0.194443
-0.353695 -0.356323 -0.160287
-0.314757 0.166854 0.121790
-0.011940 0.076897 0.251782
0.202173 -0.125953 0.123944
-0.414399 0.026407 0.197896
-0.086443 -0.116047 -0.463850
0.305658 -0.124950 -0.082786
-0.221612 0.312369 -0.186231
0.117442 0.058527 -0.436719
-0.110302 -0.294378 0.486292
-0.448858 -0.009503 -0.369598
0.298243 0.095720 0.155212
-0.481413 -0.081824 -0.377903
0.196614 -0.011680 0.185643
-0.276348 -0.441336 -0.341301
0.071154 0.115819 -0.442777
0.429225 0.109383 0.006716
0.408125 0.187972 0.156302
0.340051 0.254885 -0.393823
0.030364 -0.323277 -0.344778
-0.008057 0.156594 -0.438988
-0.274552 -0.004792 -0.439152
-0.213574 0.315173 0.005647
0.191181 -0.147092 -0.023214
-0.284925 0.004598 0.004148
0.098169 0.220626 0.178171
-0.175659 -0.033168 -0.467137
-0.364748 -0.346443 -0.179609
0.409201 0.159309 0.263094
-0.213747 -0.150921 -0.476579
-0.545835 -0.028605 -0.277570
-0.097598 -0.014005 -0.385668
-0.245340 0.031930 0.146744
-0.155620 -0.361172 -0.429639
0.408071 0.262322 0.138039
0.045397 0.290850 0.148203
-0.110120 -0.181172 -0.203468
-0.038508 0.408012 -0.013127
0.169129 -0.037301 0.384391
-0.239519 0.073717 -0.420554
-0.490020 -0.099121 0.200903
0.114853 0.243481 -0.428481
0.389426 0.168629 -0.334926
-0.173803 -0.400355 0.329519
-0.050171 -0.224978 0.064189
-0.033167 0.432648 -0.153432
-0.194424 0.343751 -0.155712
-0.460014 -0.216585 -0.404114
-0.092299 0.009454 0.189259
-0.586581 -0.112454 0.026281
0.026312 0.129508 -0.394310
-0.174828 0.363202 -0.137403
-0.040652 0.324168 -0.353994
0.300935 0.078053 -0.363132
0.144016 -0.022039 -0.410262
-0.594989 -0.091631 -0.208524
0.172979 0.051300 0.207217
0.093012 -0.236675 0.000117
0.043157 -0.198830 0.375439
0.040102 0.551687 -0.156483
0.189278 0.267318 -0.425222
0.155426 -0.102007 -0.289349
0.000019 0.471167 -0.113688
0.248136 0.158606 -0.385773
-0.389351 0.190627 -0.045495
-0.115607 -0.079720 -0.381362
-0.068965 -0.062410 0.284072
0.386386 0.142933 -0.318605
-0.322598 0.005464 -0.423888
-0.001450 -0.283738 -0.180257
0.484820 0.092612 -0.136698
0.021408 -0.096194 0.427364
-0.127958 -0.232745 0.420222
0.012552 -0.042100 -0.452797
0.207454 0.058835 0.377301
-0.198120 -0.128080 0.308418
-0.579449 -0.103920 0.074486
-0.110811 0.048888 -0.377096
-0.259228 0.218903 -0.305851
0.031874 -0.034540 -0.378461
-0.035625 0.417811 -0.268882
-0.089288 -0.524657 0.027221
-0.502376 -0.021775 0.152101
0.099477 -0.381722 -0.137825
0.056700 -0.224023 -0.385558
0.058454 0.185666 0.179683
-0.182029 -0.108455 -0.181582
-0.280086 -0.127685 -0.475501
0.112349 0.314890 0.191316
-0.201977 0.333788 -0.043157
-0.115988 -0.434927 0.183209
-0.132151 -0.015737 -0.466857
0.047610 -0.210354 0.372508
0.250299 0.030771 0.108149
0.265462 -0.162737 -0.166907
0.239272 0.337905 0.196703
0.272937 0.280152 -0.405074
0.194049 0.031564 -0.351449
0.064581 -0.120146 -0.332774
-0.029767 -0.290268 -0.403903
-0.326278 -0.204126 -0.474616
0.184532 -0.150062 0.382026
0.210773 -0.141930 -0.123570
-0.132824 -0.163951 -0.309459
-0.341231 -0.377523 -0.328692
0.177506 0.340437 0.169656
-0.046721 0.387209 -0.294539
-0.600960 -0.087457 -0.028399
0.226864 -0.022967 -0.301319
-0.005559 -0.124512 0.422617
-0.016041 -0.262313 0.005235
-0.221016 -0.489115 -0.174456
0.026275 0.481808 -0.186099
-0.296184 0.260277 -0.023403
-0.214700 -0.394441 -0.412944
-0.160807 0.088735 0.246123
0.403081 0.092716 0.325721
-0.004901 0.068209 -0.391760
-0.523629 0.071460 -0.177240
0.260622 -0.144065 0.020702
-0.159001 -0.180486 -0.470777
0.301526 -0.084384 0.024886
0.148043 -0.316791 -0.157831
0.089864 -0.256066 -0.338832
-0.035075 -0.519623 -0.041395
-0.307937 -0.128353 0.302758
-0.088250 0.350502 -0.211100
0.329554 -0.061039 -0.005435
0.111068 0.513232 -0.282148
-0.346512 -0.158794 0.293725
0.017277 0.285428 0.185087
0.484831 0.157342 -0.293447
-0.098032 0.365789 -0.079616
-0.170873 -0.267885 -0.469275
0.295354 0.045605 0.084003
0.189822 -0.069226 0.168291
0.451411 0.248368 0.126631
-0.310375 0.017913 -0.210253
0.292338 0.167801 0.279438
-0.426916 -0.227394 0.254310
0.185289 -0.003849 -0.395517
-0.390458 0.023048 -0.382442
0.278995 0.152985 0.416198
0.137589 -0.082029 0.113766
-0.012991 -0.088703 0.268218
0.018369 0.316376 -0.385645
0.340062 0.133743 0.221748
-0.099939 -0.369353 -0.407924
-0.108976 -0.190161 -0.464413
-0.571384 -0.001931 -0.170901
-0.229878 -0.045441 0.078736
0.424239 0.198788 0.144296
0.417956 0.247778 -0.378001
0.405497 0.188532 0.208477
-0.563524 -0.066949 -0.270891
-0.418645 -0.298311 -0.271544
0.130540 -0.173208 0.163728
-0.356703 0.202048 0.027253
-0.153277 0.286772 -0.201319
0.335494 0.068361 0.110652
-0.228221 -0.063869 -0.211168
0.249323 -0.076936 -0.217381
-0.089970 -0.043343 -0.464746
-0.013970 0.198186 -0.424054
-0.149634 0.104566 -0.351608
0.166320 -0.178178 -0.160090
0.258928 -0.039350 0.434306
0.079848 0.228540 -0.392546
0.455874 0.183262 -0.350197
0.171614 -0.137915 0.447266
-0.354636 0.153422 0.102640
-0.093952 -0.400172 -0.390994
-0.169698 -0.167772 0.316686
-0.490029 0.011454 0.143939
0.145725 -0.009008 -0.413510
-0.143233 0.159178 0.131355
0.295318 0.285093 -0.404859
-0.307205 -0.398826 -0.094815
0.098189 -0.241376 -0.174242
-0.115367 0.373491 0.030808
0.146679 0.024774 0.448499
0.338643 0.024663 0.081560
-0.482642 -0.000959 0.164288
0.100800 0.578902 -0.094369
0.415577 0.031300 -0.142983
-0.321436 0.172414 0.109086
0.185333 0.165795 0.177907
-0.326267 -0.063444 -0.446762
0.094951 0.555878 0.038309
0.522438 0.155466 -0.117705
-0.001149 -0.439004 0.108941
-0.102823 -0.170536 0.088481
0.226874 0.032493 -0.386396
-0.022346 0.337194 0.143660
-0.047098 -0.485464 0.081300
0.011216 0.397252 0.061746
0.155327 -0.181637 0.135681
-0.155830 -0.137321 -0.233818
0.028173 -0.036742 -0.450547
-0.131913 0.265498 -0.347108
-0.017017 -0.133875 0.446722
-0.482577 0.041759 0.123148
-0.291648 0.184878 0.120419
-0.436902 -0.283389 -0.325724
0.329168 -0.054162 0.008795
-0.328161 -0.388513 -0.384203
-0.275745 0.149647 -0.217983
-0.288845 -0.086241 -0.462348
0.355513 0.119770 0.239036
-0.233634 0.022896 0.259665
-0.018766 -0.284136 0.245902
0.173414 0.397402 -0.382409
-0.219043 -0.071467 -0.182199
-0.067909 0.131003 0.172214
0.107117 0.258174 0.208196
-0.065487 -0.365504 -0.393665
0.404031 0.185256 0.172861
0.373753 -0.009143 -0.199584
0.308869 -0.029868 -0.194256
0.026759 0.265147 -0.368463
-0.574942 -0.135311 -0.142633
-0.257445 -0.029380 -0.121161
-0.115183 -0.535872 0.026449
0.215805 0.382476 0.166998
-0.270186 0.140309 0.045290
-0.431577 -0.073952 -0.418182
-0.024286 -0.183989 0.397233
0.205354 0.395662 0.161802
0.460226 0.108888 -0.065552
0.222595 -0.001321 0.106437
0.361529 -0.048592 -0.078776
0.167616 -0.242970 0.072910
-0.209510 0.192660 0.052248
0.097369 -0.217040 -0.221440
-0.186270 0.242938 0.138058
-0.293856 0.240973 0.044998
-0.446918 -0.219114 -0.412088
0.118036 -0.234606 -0.326707
-0.257928 0.162111 0.034300
0.367259 0.146079 -0.358671
0.093787 0.470389 0.068585
-0.199617 -0.061337 0.168637
0.094533 0.237623 -0.394860
-0.468152 -0.230459 0.049720
-0.083033 0.349384 0.091637
0.098421 -0.374848 -0.006206
0.216261 0.271879 0.177824
-0.563392 -0.079107 -0.277646
0.010044 -0.435846 0.095290
-0.004171 0.234726 0.153060
-0.066075 -0.219232 -0.105698
0.018639 -0.144078 0.481525
-0.114641 0.326693 -0.002116
0.307628 -0.044657 -0.135735
-0.114948 -0.231376 0.407844
0.236677 0.432158 0.194568
0.022436 -0.194815 -0.312862
-0.236860 0.057428 0.139326
-0.155170 0.245183 -0.261484
0.162175 -0.132211 0.053502
0.471946 0.193659 -0.331047
0.068539 -0.134874 -0.411507
0.128089 0.402489 -0.389490
0.099315 0.096430 0.183593
-0.304845 0.023211 -0.017957
0.023680 -0.132743 -0.342794
-0.364770 -0.339669 -0.061248
-0.085712 0.296730 0.146464
0.140488 0.178183 -0.398833
0.090706 -0.393775 -0.132858
0.129630 0.369848 0.146700
-0.056117 -0.495554 0.065380
0.422116 0.095524 -0.228243
0.524759 0.129670 -0.175221
-0.234603 0.055417 0.242510
-0.345811 0.021492 -0.408794
0.246197 -0.096158 -0.034705
-0.418304 -0.302530 -0.337494
-0.053199 0.270844 -0.385393
-0.243402 0.187840 0.157537
0.256249 -0.061520 0.017951
0.170765 0.043427 0.153993
0.058164 0.502234 -0.280059
-0.456936 -0.240394 0.069388
0.000337 -0.169802 0.485267
-0.255610 -0.017632 -0.447620
-0.549409 0.048775 -0.162684
-0.182884 -0.514499 0.035962
0.048959 -0.061635 -0.364620
0.048969 -0.338695 -0.309435
-0.257695 -0.023875 -0.021096
0.059336 -0.289974 -0.122828
-0.088879 -0.462191 -0.319609
0.181547 0.141647 0.174897
-0.269851 -0.442363 -0.358854
-0.589452 -0.097823 -0.235062
0.237526 -0.069315 -0.241484
-0.116870 0.395964 -0.176430
-0.193141 0.332378 -0.002767
-0.303735 -0.142714 0.304280
-0.169838 -0.117806 -0.135093
-0.599605 -0.080396 -0.175785
0.192645 -0.241852 0.014629
0.089560 -0.201300 -0.249066
-0.045820 -0.225260 -0.434138
0.060715 -0.186820 -0.397522
-0.261044 0.196307 -0.149604
-0.596661 -0.105872 -0.055498
-0.099641 -0.083481 0.194780
-0.174455 -0.533705 -0.160505
0.196276 -0.268962 -0.106215
0.044242 0.520873 -0.226387
-0.060919 0.112644 0.178957
-0.120548 0.283440 0.139820
0.251907 0.210142 0.202864
-0.043061 0.038501 0.261448
0.218561 0.073167 0.190817
0.085332 -0.050148 0.467798
0.231608 0.122316 0.155865
0.095752 0.177739 -0.398848
-0.124339 -0.165641 -0.354483
-0.231270 0.018469 -0.346988
-0.290627 0.049511 0.229004
-0.297838 0.016896 -0.005735
0.267273 -0.072996 0.387873
0.366715 0.060142 -0.292746
-0.087973 0.275565 -0.366056
0.478875 0.193501 -0.304840
-0.144967 -0.259864 0.448581
-0.143620 0.077096 0.167124
-0.030286 0.386318 0.089457
0.437566 0.079473 -0.092262
-0.063670 -0.211405 0.064909
0.241016 0.059300 -0.387896
-0.594742 -0.072112 0.027858
-0.038879 -0.232029 0.099992
0.232089 -0.210449 -0.154294
-0.286426 0.215373 -0.287277
0.167176 0.327434 0.190455
-0.305144 -0.414133 -0.349468
0.477586 0.183005 -0.282490
0.268246 -0.072077 -0.185744
0.393122 0.177935 0.343182
-0.285823 -0.003855 -0.286374
-0.117321 -0.553661 -0.102211
-0.064404 -0.490370 -0.260951
-0.236052 0.243431 0.096294
-0.044145 -0.221042 0.123687
-0.048637 0.361345 -0.316693
0.282506 -0.131714 -0.196600
-0.407963 0.136251 -0.253082
-0.191979 0.330842 -0.196671
-0.137868 -0.133417 0.109971
-0.131620 0.088374 -0.439579
-0.009631 -0.508727 -0.063387
0.202765 0.016574 -0.393326
-0.091150 0.342193 0.011928
-0.412908 0.045630 -0.348564
0.006336 -0.108557 0.430249
0.019661 0.097458 -0.449301
0.392137 0.195243 0.115783
0.439096 0.250840 0.129090
0.119273 0.327805 0.159229
0.386513 0.076152 -0.247645
0.375442 0.060523 0.362470
0.236665 0.029117 -0.332709
-0.051336 -0.381227 0.380949
0.368416 0.050029 -0.236329
-0.134492 -0.401946 0.261853
0.186908 -0.225365 -0.253522
0.250072 -0.106648 -0.099944
0.246984 0.121461 0.363681
-0.052539 0.239546 0.192176
-0.044842 0.249837 0.130545
0.377263 -0.021641 -0.134996
0.115219 -0.182471 0.454162
-0.408700 0.176767 -0.054279
-0.290094 -0.178315 0.304984
-0.282416 -0.004020 0.259802
-0.447113 -0.037032 0.217358
0.126013 0.173337 -0.398626
0.180280 -0.291229 -0.093979
-0.235521 -0.070007 -0.467674
0.332502 -0.066952 -0.024912
0.040861 0.246653 0.210161
0.019186 -0.464042 0.017632
-0.307202 -0.001354 -0.430302
-0.216106 0.190485 -0.358775
-0.013542 -0.266054 -0.015925
0.129671 -0.157460 0.456993
0.187748 0.113233 -0.386036
-0.094562 0.050183 0.185373
0.040763 -0.365798 0.124982
-0.470134 0.130370 -0.140086
-0.338497 -0.345497 0.233899
0.181789 0.129944 0.213155
0.378184 0.026776 -0.063158
0.087653 -0.402261 -0.113261
0.035518 0.506838 -0.225406
0.208077 0.354957 -0.430767
-0.108150 0.309187 -0.324218
-0.200104 -0.269165 -0.472791
0.014126 0.303865 -0.390605
-0.144031 -0.102334 0.301484
-0.071587 0.397411 -0.109279
-0.539342 0.040949 0.043506
0.455479 0.170052 0.048090
0.006036 -0.299023 0.212395
-0.400299 -0.308154 -0.126932
0.183333 -0.239511 0.043247
-0.069240 -0.222447 -0.222423
0.215863 0.456123 -0.395634
-0.081942 -0.354401 0.457421
-0.238710 -0.044922 -0.063353
-0.019725 0.059285 0.187549
-0.248669 -0.379795 -0.426209
0.095095 0.182310 -0.438102
-0.455473 0.141367 -0.065081
0.060655 0.171366 -0.395864
-0.230151 0.323249 -0.114297
0.004396 0.361162 0.089787
0.309737 -0.097635 -0.189157
0.351421 0.000349 -0.257714
-0.432323 0.105909 0.091245
0.258438 0.401573 0.202403
0.094906 0.324175 -0.375604
-0.400467 -0.315744 -0.261869
0.077355 -0.277041 -0.074962
0.053019 0.012402 0.181361
0.250829 -0.016139 0.351842
-0.501587 -0.146883 -0.373465
0.111293 -0.017639 0.412411
-0.187462 0.045396 -0.354620
-0.000226 0.471052 -0.129433
-0.076371 0.212774 0.134652
0.052294 0.333502 0.132361
0.421221 0.031664 -0.113237
0.103207 -0.156219 0.372547
-0.487049 -0.230112 -0.266348
-0.260162 -0.023227 -0.054382
0.032515 0.054169 -0.390113
0.271729 0.253104 -0.423409
0.403568 0.066604 0.034825
0.101254 0.439081 -0.361855
0.162445 0.381160 -0.382904
0.187076 0.081137 0.413358
-0.296083 0.270376 -0.144036
0.508667 0.149717 -0.091822
0.267496 0.094003 0.349468
-0.032697 -0.494797 0.033935
-0.280197 -0.376082 -0.425840
0.037148 -0.466941 -0.100311
0.375344 0.075544 -0.258914
0.209136 -0.151511 -0.293893
0.124185 -0.072035 0.388851
0.008980 0.491022 -0.187922
-0.325707 0.221053 0.038340
0.014615 -0.165552 -0.331390
0.253742 0.253882 0.219065
-0.268947 -0.023795 -0.260104
0.007551 -0.206691 0.381808
0.445241 0.073725 -0.187403
-0.088315 -0.178838 0.293387
0.168904 0.287811 -0.424192
-0.469655 -0.251380 -0.341815
-0.180993 -0.518447 -0.006385
-0.068876 -0.254747 -0.434639
0.308955 0.082716 0.328645
0.085655 0.426975 0.124994
0.024369 -0.315949 0.389025
0.210348 -0.067907 0.149945
0.084817 0.325333 0.148534
0.133506 0.167736 0.223095
-0.276608 -0.430116 -0.109615
0.058208 -0.259761 0.178710
-0.589127 -0.109634 -0.009256
-0.322981 0.057653 0.053633
-0.226673 -0.097880 -0.473866
0.106500 -0.158014 -0.278637
-0.152275 -0.397376 -0.404636
0.291635 -0.011226 0.039343
-0.266693 0.273535 0.016098
0.068940 -0.277682 0.421688
-0.139288 0.380863 -0.046698
0.275675 -0.004154 0.342460
-0.115441 0.333888 0.083849
-0.016140 -0.468978 0.077921
0.188240 0.206063 -0.426201
0.162820 0.018070 0.396277
0.246919 0.357703 -0.442975
0.361439 0.109139 0.078874
0.152548 -0.159615 -0.229455
0.060359 0.105991 -0.394072
-0.001648 -0.486334 -0.193300
-0.213070 -0.270242 0.348367
-0.074358 -0.016064 0.191629
0.221908 -0.057775 -0.270245
0.187234 0.354045 -0.396654
0.150013 0.105491 0.175154
-0.234211 0.219082 -0.034958
-0.243021 -0.370104 0.314287
-0.234909 -0.035904 0.126319
-0.131613 -0.157014 -0.155701
-0.104995 0.021005 0.187840
-0.421872 0.125888 -0.251105
-0.322854 -0.386102 -0.144671
-0.043184 -0.231752 0.267977
-0.379529 0.026486 0.213958
-0.419885 0.111612 0.095382
0.066855 0.551992 -0.236799
-0.087924 0.001037 -0.386641
-0.290639 -0.417985 -0.141424
-0.283912 -0.426302 -0.169618
0.142062 0.365960 0.173945
-0.072970 -0.457222 -0.317047
0.380114 0.295805 0.189302
0.367989 0.061166 0.075344
-0.532945 -0.184590 -0.312660
0.055820 0.112232 -0.444750
-0.078007 0.424495 -0.179356
0.080845 -0.003431 -0.440766
-0.112478 0.411292 -0.128070
-0.319206 0.043261 0.042071
-0.348490 -0.025082 -0.428561
0.231933 -0.215066 -0.136937
-0.226449 0.177845 -0.251379
0.045080 -0.373840 0.113180
0.301006 0.091733 0.112340
-0.037692 0.272382 -0.389566
0.086126 -0.248992 -0.348993
-0.265067 -0.447565 -0.212870
-0.028908 -0.203031 0.144569
-0.010505 0.454811 -0.233097
0.073129 -0.095754 0.482038
0.031616 -0.263599 0.365702
-0.400418 -0.260379 0.258208
0.392472 0.064796 -0.007719
0.159988 0.486202 -0.383621
-0.097391 0.193831 0.134614
-0.444578 0.116031 0.065168
0.096581 -0.354461 0.039638
0.124633 -0.228914 0.135001
-0.083655 -0.290963 0.302206
-0.078270 -0.524632 -0.198284
-0.048646 0.415386 -0.078620
-0.556807 0.032799 -0.017691
-0.501753 -0.209239 -0.160473
0.213595 0.055577 -0.354764
-0.596482 -0.107343 -0.181639
0.222591 -0.183941 0.046277
-0.509282 -0.204416 -0.204910
-0.555866 -0.092651 0.117601
-0.354564 0.079612 -0.074739
0.040461 -0.095334 0.243538
0.071428 0.589177 -0.124738
-0.082093 -0.383278 0.420219
-0.171101 -0.125315 -0.335376
0.112346 -0.207872 0.159223
0.178147 -0.086225 0.169553
0.153944 -0.137468 0.454531
0.265692 -0.014397 -0.344192
0.098879 -0.057296 -0.347934
0.314323 0.200266 0.150335
0.254104 0.091970 0.436452
0.102671 -0.005629 -0.433661
-0.000046 0.096526 -0.393022
-0.274029 -0.332883 -0.446453
0.358398 0.280521 -0.401614
0.483637 0.162410 0.003265
0.480353 0.088115 -0.085032
-0.290877 -0.015614 0.263421
0.349222 0.241976 -0.385787
0.280958 0.036418 0.339599
-0.416356 0.035812 0.187970
-0.581066 -0.131270 -0.177011
0.131854 -0.214539 0.403175
-0.381306 0.005294 0.225460
-0.147920 -0.112551 0.174830
-0.108131 0.066852 -0.450882
0.356359 -0.056779 -0.089911
-0.287321 0.151487 -0.190169
0.100973 0.346438 0.145638
0.428168 0.150012 -0.286075
-0.076225 0.439066 -0.124828
-0.434082 -0.196402 -0.420376
-0.557272 -0.044756 -0.266880
0.157776 -0.177816 -0.015824
-0.128672 -0.157384 -0.113931
-0.228031 -0.352874 0.347668
0.026384 -0.103561 -0.354720
-0.290723 0.220152 -0.276334
0.260727 -0.002113 0.347619
0.186443 -0.024708 0.117351
0.359542 0.064723 0.085680
-0.469855 -0.220400 0.183237
-0.008505 0.486893 -0.150786
0.250754 -0.083828 -0.017353
0.329843 0.002337 -0.004878
-0.023954 -0.000699 0.267295
-0.265529 0.027874 -0.430420
-0.090251 0.080586 -0.449423
-0.514689 -0.007632 -0.309691
0.334830 0.146409 0.185338
-0.248482 -0.302237 0.333792
0.309341 0.040701 0.329471
0.182238 0.245847 0.178914
-0.413568 -0.273358 0.198509
0.234473 0.077855 0.142228
-0.197756 0.151663 -0.297311
0.219370 -0.130356 0.414451
-0.524345 0.082368 -0.048740
0.066081 -0.435048 -0.065870
0.064325 0.374837 -0.371978
0.439922 0.184603 -0.310543
0.004906 0.127060 0.182730
-0.291221 -0.355681 -0.433985
-0.321825 -0.335531 -0.434714
-0.426711 -0.288949 -0.247923
-0.201516 -0.462306 -0.359944
0.088045 0.534672 0.051146
0.085106 -0.111852 -0.328267
-0.075354 -0.196610 -0.340556
0.217650 0.328722 0.194050
-0.147737 -0.096871 -0.379379
0.055974 -0.188833 0.099459
0.341201 0.110952 0.280566
0.070219 0.526409 -0.039699
0.182257 -0.094626 0.457784
0.072294 -0.174934 0.212909
0.027952 -0.319437 0.411836
0.021757 0.404408 -0.290052
-0.074759 -0.376661 0.228245
-0.103131 -0.151354 -0.465280
0.355044 0.107704 0.258784
0.347049 0.257054 0.234318
0.031831 0.536847 -0.101702
-0.067946 -0.042527 0.193103
-0.070246 0.198931 0.143051
-0.063807 0.404778 -0.137376
-0.006159 -0.503749 -0.106220
0.195247 -0.110450 0.139538
-0.280742 -0.004503 -0.084507
0.119070 0.026011 -0.433515
-0.121770 -0.233881 -0.462601
0.425266 0.039395 -0.124939
-0.204328 -0.140847 0.311432
0.092841 0.545510 -0.290734
-0.503865 -0.175200 0.185924
-0.277943 -0.436293 -0.240079
-0.569947 -0.004636 0.010405
-0.190145 0.151738 0.109861
0.338799 0.096262 0.123772
0.200853 -0.257746 -0.039936
-0.229975 -0.484800 -0.252731
0.317574 0.082947 0.134977
-0.203601 -0.271499 0.365909
-0.273637 -0.001998 0.079740
0.225266 -0.113878 0.380180
-0.074284 0.385270 -0.058276
-0.185585 0.089684 0.145598
0.017647 -0.176334 0.483015
-0.061560 0.316716 -0.286912
0.099000 0.035692 -0.383814
-0.045971 0.111454 -0.382184
-0.074150 -0.490894 0.097750
0.088311 0.495554 -0.274160
0.287233 -0.033004 0.354487
-0.559364 0.006025 0.037789
0.182310 -0.004297 -0.339699
0.237254 0.201530 0.200215
0.033630 0.297557 0.140730
-0.224088 -0.264895 -0.474086
-0.335933 -0.358143 0.106019
0.147763 -0.161032 0.368479
-0.432662 0.165027 -0.116106
0.387173 0.002991 -0.179892
-0.064291 -0.173712 0.440371
0.368582 0.061827 0.322153
0.256821 0.344185 0.200473
-0.183867 -0.114818 0.305387
-0.511008 0.101938 -0.114322
-0.194646 -0.106936 0.303459
0.415987 0.247164 -0.391391
-0.459765 -0.248083 -0.108731
0.052551 0.222958 0.218087
-0.519082 -0.097746 0.171794
0.188645 0.041325 0.147444
-0.120633 0.397918 -0.065121
-0.447975 -0.244448 0.148056
0.341214 0.276222 0.160701
-0.245568 0.297914 -0.176558
-0.451558 -0.040313 -0.389276
-0.153248 0.194810 -0.390258
-0.261875 -0.020597 -0.036914
-0.254728 0.201256 0.132861
-0.204302 -0.490255 0.089826
-0.591682 -0.017142 -0.088556
-0.380297 -0.335180 -0.252756
0.030816 -0.470271 -0.118733
-0.364777 -0.320778 0.217774
0.403003 0.204520 0.114212
-0.468089 0.069534 0.103543
-0.078831 0.234318 0.123610
-0.037909 0.410387 -0.195479
-0.062275 0.404139 0.039509
-0.388858 0.147492 0.079087
-0.066614 -0.299618 -0.417955
-0.135267 0.321542 -0.047862
-0.207202 0.080526 -0.334673
0.384290 0.025829 0.013124
0.139728 -0.144570 0.064632
-0.316261 0.108203 0.029107
0.429032 0.070757 -0.110474
-0.451880 0.079943 -0.288577
0.004912 -0.145837 0.155220
0.227890 0.047533 -0.390681
-0.298894 -0.404659 -0.052540
0.072551 0.039536 0.244427
-0.023757 0.171121 -0.431523
0.316531 0.119648 0.119724
-0.523445 -0.175080 0.057283
-0.029655 0.470929 -0.147461
-0.254849 -0.341757 -0.446663
-0.548471 -0.165170 -0.292588
-0.022084 -0.503212 -0.165623
-0.192474 -0.090055 -0.045879
-0.067270 -0.006414 -0.462159
0.110711 -0.132922 -0.299695
-0.160221 0.351896 -0.204642
0.384407 0.220518 -0.401104
-0.307290 -0.383997 0.157131
-0.099820 -0.125874 0.188190
-0.033673 -0.358169 0.214716
0.008063 0.370558 -0.344706
-0.264867 -0.440859 -0.093729
0.407309 0.180044 0.094927
0.185006 0.083271 0.160070
-0.042877 -0.313372 -0.401970
0.296431 0.362474 0.174276
0.405111 0.092880 0.060133
0.308099 0.308153 0.211709
-0.161815 -0.531328 -0.238289
-0.160846 -0.039196 -0.379804
-0.426892 0.160466 -0.156314
0.078645 0.078110 0.184144
-0.008062 0.238325 -0.410748
0.277372 0.189323 -0.388374
0.005917 0.154466 0.179901
-0.520338 -0.054415 0.146601
-0.281079 0.076559 0.217481
-0.255110 -0.062004 -0.461750
0.286048 0.284405 0.174925
0.072268 -0.262720 -0.351548
0.081376 0.548731 -0.166667
-0.017728 -0.254159 0.071304
-0.075916 0.245601 0.118553
-0.013985 0.315495 0.111566
0.037302 -0.105244 0.407501
0.385032 0.164781 0.369390
-0.305317 -0.157086 -0.477895
-0.203778 -0.078075 -0.031604
-0.054611 -0.194207 -0.343274
0.101778 0.290375 -0.385906
-0.180534 -0.105186 -0.101470
0.329489 0.014435 0.340823
0.029287 -0.234704 -0.273763
-0.032984 -0.039952 -0.383023
0.209661 -0.122443 -0.010099
0.016954 -0.340356 0.168980
0.180443 0.028926 0.200955
0.221384 -0.222367 -0.024309
-0.004699 -0.028828 -0.383052
0.067241 -0.042186 0.164104
0.044071 0.514590 -0.111937
0.479949 0.164629 -0.306924
-0.013052 -0.506306 -0.031866
0.089243 0.059540 0.180470
-0.301352 -0.165508 0.303967
-0.407827 0.064245 -0.336473
0.375893 0.033648 -0.187484
-0.243782 -0.034465 -0.348557
0.470623 0.090436 -0.178498
-0.086772 -0.491271 0.107148
-0.575381 -0.122995 0.054691
-0.502026 0.104461 -0.066850
-0.421636 0.006124 -0.375595
-0.383175 -0.322138 -0.074416
-0.326417 -0.217232 0.290412
-0.316562 -0.382834 0.019269
-0.263421 -0.180417 -0.481014
0.012653 0.126771 -0.392669
0.072205 -0.273328 -0.146796
0.236971 -0.020607 -0.294582
0.278010 -0.095524 0.059671
-0.378588 -0.078154 -0.439374
0.301841 0.148386 0.139569
0.242724 0.093994 0.183420
0.506536 0.149921 -0.142840
-0.070806 0.360757 -0.302841
0.256541 -0.025875 -0.344780
0.094533 -0.335889 0.078790
0.153912 0.232583 0.179156
-0.498800 -0.165884 0.199003
0.110481 -0.380294 -0.077380
0.171054 -0.270188 -0.217330
