0.47104856 0.18637256 0.39148030 -0.00024427 -0.00017106 -0.00008775
0.78011620 0.94844306 0.44182023 -0.00022983 0.00036432 -0.00001144
0.70045459 0.70076084 0.44500864 0.00019419 0.00001175 -0.00003435
0.38323835 0.87797076 0.77017909 -0.00010543 0.00048973 -0.00012982
0.26059321 0.84959257 0.58743614 -0.00005184 -0.00019586 -0.00005996
0.24696746 0.84510118 0.62283444 0.00000138 -0.00032313 0.00002870
0.39336517 0.48828417 0.51889127 -0.00024940 0.00001753 0.00011674
0.44511572 0.56632370 0.36935851 0.00009921 0.00000977 0.00013745
0.67266816 0.70828581 0.58912104 0.00015761 0.00000185 0.00009019
0.78008270 0.90895593 0.54058391 0.00007302 -0.00024292 -0.00008185
0.43308032 0.58603376 0.37645090 0.00012954 0.00001857 0.00011424
0.55442840 0.74018091 0.64388967 -0.00005998 0.00004264 -0.00012049
0.35225496 0.79272532 0.43200219 0.00011487 0.00004378 0.00005808
0.59328866 0.07903031 0.50953853 -0.00006947 -0.00000403 -0.00026691
0.45962733 0.62939739 0.31671777 -0.00007350 -0.00006725 -0.00021489
0.63488477 0.29411218 0.38057163 -0.00013721 -0.00004072 0.00016047
0.68479729 0.47223812 0.40275967 0.00022368 -0.00002092 -0.00005376
0.68500978 0.62275660 0.55243433 0.00016090 0.00002542 0.00013988
0.44996154 0.82402009 0.69190735 -0.00007993 0.00005906 0.00015900
0.50731045 0.28301862 0.36970684 0.00011863 -0.00001250 0.00017309
0.34009570 0.80355316 0.52475029 0.00009791 0.00007652 -0.00004447
0.34471187 0.78637004 0.46287811 0.00011882 0.00006292 0.00001843
0.47346631 0.71566808 0.63799196 0.00005189 0.00003299 -0.00015291
0.29259840 0.85376322 0.54235828 -0.00018074 -0.00003620 0.00000759
0.61999303 0.07393852 0.31758475 0.00011742 -0.00068789 -0.00057702
0.42582366 0.42215452 0.38062412 -0.00020252 -0.00005712 -0.00008843
0.55558616 0.18389462 0.36139312 0.00003669 -0.00013897 0.00019501
0.37364823 0.84683603 0.66291767 -0.00008944 0.00002079 0.00013382
0.42399248 0.33027512 0.45579001 -0.00024869 -0.00010399 -0.00006866
0.65330732 0.15337051 0.46672961 -0.00016693 -0.00010776 -0.00010571
0.54160523 0.73256475 0.32973281 -0.00003295 0.00002098 0.00014161
0.60248309 0.19699910 0.36434498 -0.00006754 -0.00009431 0.00018119
0.58076644 0.20135638 0.36024833 0.00002422 -0.00005942 0.00017217
0.48124251 0.19214386 0.51061708 -0.00018293 -0.00024133 0.00016238
0.34964368 0.80670369 0.37114409 -0.00018001 0.00007470 -0.00009333
0.48232108 0.48716176 0.35598397 0.00009015 -0.00003405 0.00019021
0.67144513 0.62215883 0.46230182 -0.00014431 0.00000967 0.00003271
0.57253444 0.11944041 0.31656986 0.00004562 -0.00016592 -0.00042867
0.66635591 0.57817930 0.50784504 -0.00014232 -0.00000885 -0.00003514
0.80446571 0.92231584 0.47572109 0.00052835 -0.00032355 -0.00009655
0.76482534 0.91670018 0.43145350 0.00011538 -0.00022021 -0.00001606
0.66310471 0.49172199 0.50081193 -0.00017231 -0.00002780 -0.00004698
0.42521554 0.79555333 0.31334704 -0.00014840 0.00008210 -0.00014790
0.61083472 0.91122228 0.66529328 -0.00005405 0.00026255 0.00008433
0.66396654 0.08947452 0.34214407 0.00036850 0.00028353 -0.00051525
0.37785843 0.64508045 0.38021642 -0.00015762 -0.00005377 -0.00014085
0.46439573 0.53604472 0.32525855 -0.00022499 0.00004544 -0.00017686
0.52083898 0.77581573 0.68764895 -0.00008051 0.00003417 0.00018182
0.73889077 0.95247263 0.34374472 -0.00002110 0.00034696 -0.00007141
0.66631114 0.10593254 0.34730724 0.00037734 -0.00005162 -0.00031974
0.54785901 0.65851784 0.65951425 0.00000704 0.00002472 0.00019150
0.70508021 0.92068249 0.67204338 -0.00002683 0.00028522 0.00000985
0.47325993 0.13356583 0.45957616 -0.00004639 -0.00006902 0.00006222
0.23340368 0.88919598 0.45353913 -0.00016232 0.00028929 -0.00002363
0.38619536 0.88269955 0.71877259 -0.00001923 0.00023829 0.00009269
0.63362819 0.87037438 0.66169631 0.00009929 0.00008991 0.00014103
0.41237426 0.41670144 0.40913385 -0.00016646 -0.00007476 -0.00011513
0.63005108 0.34747541 0.56915039 0.00012465 -0.00005494 0.00018733
0.38916358 0.84693915 0.36459699 0.00005551 0.00002798 0.00009316
0.46998119 0.09110009 0.41427812 -0.00041549 -0.00010755 -0.00007363
0.65398079 0.33446208 0.54741997 0.00013728 -0.00003998 0.00017829
0.27777195 0.86538404 0.42482638 -0.00000452 -0.00013098 -0.00003760
0.36188462 0.72079426 0.59727567 -0.00017607 -0.00002028 0.00009903
0.38120764 0.83172745 0.37502572 0.00008081 0.00002163 0.00008342
0.35422200 0.87934518 0.71817654 -0.00010361 0.00024053 0.00012684
0.47950339 0.10484450 0.48506695 -0.00028156 -0.00001223 0.00011749
0.37508291 0.54045957 0.50465745 -0.00025542 0.00004714 0.00010076
0.70575368 0.78516680 0.46785551 0.00016306 -0.00001956 -0.00003658
0.48487556 0.91595620 0.31879663 -0.00005439 -0.00005913 0.00018125
0.61061627 0.12177042 0.35793036 -0.00012088 -0.00009719 0.00014514
0.62635350 0.91086364 0.68872070 -0.00001077 0.00021854 0.00002904
0.56437552 0.08240448 0.31523070 -0.00002276 -0.00028800 -0.00068440
0.43312332 0.87478662 0.79896575 -0.00020762 0.00018971 0.00070000
0.69879377 0.57260412 0.44792181 0.00023654 -0.00000499 -0.00002794
0.30303141 0.87693602 0.32162380 -0.00009098 -0.00023112 -0.00008944
0.21452191 0.85766721 0.43622446 -0.00017183 -0.00042370 -0.00014675
0.64961749 0.69246942 0.56661570 -0.00013919 0.00001589 -0.00006744
0.42548305 0.45008883 0.47306255 0.00019587 0.00001232 -0.00009963
0.63323259 0.19231242 0.38343921 -0.00012696 -0.00010838 0.00014867
0.56485200 0.50967401 0.34154889 -0.00001475 -0.00002247 0.00018248
0.61034960 0.49213657 0.60706621 0.00011024 -0.00002847 0.00017307
0.44114721 0.85692412 0.72605592 0.00001704 -0.00011348 0.00004024
0.53925627 0.73081696 0.67611247 0.00005431 -0.00002590 0.00016946
0.39304006 0.78513062 0.37335455 0.00009685 0.00004971 0.00010914
0.59140593 0.86932588 0.76804346 0.00007823 -0.00028220 0.00002205
0.63543785 0.39584747 0.57422668 0.00019614 -0.00008873 0.00012594
0.33937928 0.91760510 0.25416183 -0.00033325 0.00048194 0.00018407
0.30071858 0.85189772 0.72908348 -0.00033889 -0.00037340 0.00039285
0.59909004 0.43969193 0.32183626 0.00001177 -0.00000848 -0.00025623
0.69073027 0.65936333 0.54596895 0.00019260 -0.00001477 0.00003373
0.57323968 0.43003213 0.34582961 -0.00010128 -0.00002430 0.00017465
0.67723787 0.07081206 0.42502764 -0.00000831 -0.00054093 -0.00007179
0.25088093 0.84927440 0.57908458 -0.00006230 -0.00020466 -0.00001684
0.35963205 0.60525352 0.51431292 -0.00022493 -0.00009488 -0.00004032
0.59805018 0.23498803 0.36518532 -0.00004849 0.00002945 0.00004859
0.50667053 0.23363595 0.50988346 0.00014251 -0.00001302 -0.00018307
0.45275685 0.55907732 0.36449638 0.00008570 0.00001145 0.00014158
0.42012635 0.47813758 0.48836800 0.00017391 0.00000791 -0.00005307
0.57004869 0.59955454 0.61122477 -0.00003580 0.00004277 -0.00016387
0.55028361 0.90116680 0.70728254 -0.00009092 0.00023908 0.00008652
0.32793045 0.88062501 0.30955055 -0.00003277 -0.00019296 -0.00008196
0.47141671 0.11289074 0.46764046 -0.00029625 -0.00011118 0.00010615
0.51560265 0.89928144 0.31998444 -0.00002577 0.00004855 0.00007226
0.68340307 0.88899040 0.65316933 0.00003414 -0.00013945 0.00001261
0.44389692 0.45682773 0.53184527 0.00014953 0.00001610 -0.00009054
0.44180086 0.44725567 0.57301480 -0.00016779 -0.00010300 0.00013590
0.47843856 0.55440009 0.59551764 0.00006558 0.00003525 -0.00014563
0.41660249 0.49114144 0.48782787 0.00016288 -0.00000295 -0.00007099
0.45107102 0.34840173 0.46744350 0.00020374 0.00000115 -0.00002587
0.48456934 0.63302618 0.61938715 0.00004760 0.00004557 -0.00016235
0.60877991 0.70377976 0.64738083 0.00009762 -0.00002200 0.00016856
0.60112679 0.87330729 0.78785676 -0.00000751 -0.00047554 0.00042707
0.47326934 0.09943447 0.46783742 -0.00035315 -0.00013690 0.00007059
0.42230842 0.59694755 0.38561267 0.00013387 0.00004728 0.00011304
0.37082624 0.54948807 0.49320695 -0.00022225 -0.00012629 0.00001312
0.47554177 0.56987846 0.59870088 0.00006167 0.00003222 -0.00014711
0.57958895 0.46638945 0.61341971 0.00006975 -0.00008436 0.00019774
0.66371709 0.38207552 0.47140855 -0.00019461 -0.00004854 -0.00003920
0.49192667 0.28428382 0.34341013 -0.00010924 -0.00009252 -0.00023841
0.64019680 0.81885689 0.38626981 -0.00011063 0.00003897 0.00007632
0.35453078 0.91160238 0.34286916 0.00000603 0.00026684 -0.00007004
0.43373999 0.52025580 0.54807276 0.00011395 0.00003155 -0.00011257
0.23949234 0.84937149 0.56382465 -0.00007198 -0.00021234 -0.00004776
0.48518953 0.39694667 0.58678418 -0.00008019 -0.00017838 0.00020196
0.52713054 0.51386267 0.33971685 0.00005722 -0.00005407 0.00020317
0.19663355 0.86419541 0.53317070 -0.00054067 -0.00034782 0.00010776
0.65475059 0.70774996 0.35756996 0.00012879 0.00001980 -0.00017282
0.63359815 0.92248011 0.37855041 -0.00016119 -0.00006004 0.00007215
0.40762219 0.73655385 0.60848451 0.00007618 0.00009747 -0.00010856
0.38763690 0.64151019 0.59443212 -0.00014986 -0.00004630 0.00012784
0.62586063 0.19170432 0.54282528 0.00003617 -0.00018404 0.00024672
0.49535418 0.79895592 0.69300312 -0.00006992 0.00002655 0.00015997
0.52011389 0.57691842 0.64270622 -0.00003532 -0.00015890 0.00017808
0.59399390 0.20813999 0.36307979 -0.00003853 -0.00012295 0.00016113
0.62632340 0.36295035 0.33581117 0.00010857 -0.00002600 -0.00020791
0.45168602 0.62853640 0.63891059 -0.00010240 -0.00005426 0.00016063
0.40734354 0.42142510 0.42073920 -0.00021369 -0.00009703 0.00000245
0.66437340 0.55753773 0.43193683 -0.00015890 -0.00003077 0.00003391
0.40766004 0.66413254 0.57973135 0.00011507 0.00002931 -0.00013252
0.55489463 0.43660593 0.31318963 0.00000789 -0.00005388 -0.00023830
0.60278159 0.10685971 0.31621632 0.00007991 -0.00017535 -0.00045006
0.35267293 0.61823845 0.47725210 -0.00021965 -0.00003108 0.00003074
0.63788402 0.38792852 0.38378927 -0.00014676 -0.00005009 0.00011665
0.53741825 0.57564718 0.64257461 0.00000704 -0.00006733 0.00019646
0.63562709 0.14662732 0.49289906 -0.00012053 -0.00012240 -0.00016334
0.32456920 0.88200724 0.65037829 -0.00015635 0.00022056 0.00007171
0.41437742 0.89529485 0.24595214 -0.00003335 -0.00021086 -0.00011383
0.42971563 0.37909442 0.38971794 -0.00016124 -0.00011239 -0.00015250
0.38205829 0.70659399 0.56390893 0.00013362 0.00005565 -0.00007145
0.45760006 0.33007213 0.47693729 0.00021204 -0.00002358 -0.00005467
0.59897047 0.82781398 0.34966910 -0.00010912 0.00004108 0.00008972
0.70446694 0.71921515 0.46973568 0.00019667 0.00009493 0.00003724
0.72452879 0.91290629 0.42564863 0.00013402 -0.00010752 -0.00006453
0.64335853 0.88134485 0.66215736 0.00009990 -0.00002898 0.00010602
0.69718540 0.10034619 0.39591584 0.00046951 -0.00001221 -0.00023846
0.70251107 0.64286917 0.48839384 0.00020714 -0.00005676 -0.00000773
0.42824742 0.84732366 0.65769857 0.00000638 0.00006660 -0.00005388
0.39595491 0.45473424 0.43606189 -0.00021168 -0.00007894 -0.00004849
0.66404653 0.92124414 0.25349352 0.00014103 -0.00052312 -0.00003844
0.65060490 0.59616911 0.40111083 -0.00015038 -0.00001270 0.00007155
0.58851421 0.24435107 0.35498193 -0.00005159 0.00001551 0.00020160
0.47738838 0.90170866 0.24943040 -0.00002283 -0.00016747 -0.00012685
0.67530352 0.26757550 0.50755596 0.00020346 -0.00013145 0.00007661
0.41672465 0.85905457 0.30997977 -0.00002202 0.00009036 -0.00017081
0.66032231 0.88316751 0.69234085 0.00006108 -0.00015855 0.00006361
0.67700911 0.79131651 0.59691095 0.00014547 0.00000141 0.00010126
0.48701119 0.80327189 0.66250223 -0.00002066 0.00005484 -0.00012555
0.51645416 0.28666112 0.36334297 0.00005521 -0.00006878 0.00018981
0.31261981 0.78100729 0.48338372 -0.00018502 -0.00003589 -0.00007462
0.62815368 0.11476577 0.32399768 0.00025083 -0.00004171 -0.00035977
0.50705838 0.19191764 0.53535014 -0.00013850 -0.00004619 0.00023894
0.70960867 0.89145195 0.65700448 0.00004970 -0.00017589 0.00001874
0.49708983 0.62148362 0.30640519 -0.00003552 -0.00003637 -0.00021610
0.39566162 0.91582894 0.34466848 0.00001324 0.00030430 0.00011534
0.46941185 0.08578983 0.43776402 -0.00041255 -0.00022112 -0.00004672
0.58297515 0.10532273 0.51206893 0.00003015 -0.00004828 -0.00023590
0.47175300 0.28406450 0.48140210 0.00022246 -0.00003839 -0.00009582
0.68980569 0.40641037 0.49835548 0.00020758 -0.00006854 0.00009088
0.68480247 0.46816126 0.52448624 0.00019602 -0.00005752 0.00007397
0.20500833 0.84987986 0.56458843 -0.00053324 -0.00037389 0.00013876
0.63103414 0.56742972 0.60826343 0.00015978 -0.00003435 0.00013755
0.26660615 0.89682156 0.40592912 -0.00014560 0.00024313 -0.00004444
0.75916332 0.93752068 0.54304117 0.00014624 0.00027986 -0.00006787
0.68920529 0.07266814 0.41825438 0.00006318 -0.00063796 -0.00001107
0.48153493 0.69820893 0.30368984 -0.00007595 -0.00000320 -0.00020111
0.45420009 0.80529571 0.68813837 -0.00008384 0.00003123 0.00015312
0.41441011 0.68976617 0.37273955 0.00011973 0.00002875 0.00014476
0.47303024 0.24395372 0.36876073 -0.00019532 -0.00013127 -0.00014891
0.38740468 0.67467743 0.41237557 0.00016056 0.00006397 0.00005644
0.53392965 0.81385022 0.32556391 -0.00002002 0.00003613 0.00013337
0.31081274 0.88077646 0.64764404 -0.00010570 0.00022363 0.00016024
0.60197049 0.40393928 0.32365450 0.00022583 -0.00002116 -0.00017066
0.35237795 0.75580209 0.60069627 -0.00014416 0.00000669 0.00015139
0.52634448 0.73746908 0.29782823 0.00003689 -0.00003168 -0.00021648
0.50578374 0.25387153 0.37607330 0.00016877 -0.00000115 0.00014420
0.58740216 0.60483295 0.34626997 -0.00009858 -0.00004410 0.00015590
0.66392177 0.77159268 0.36803395 0.00015222 0.00004313 -0.00013168
0.67521495 0.06453761 0.49559030 0.00006103 -0.00062220 0.00010420
0.61362231 0.89377165 0.35975289 -0.00005468 0.00004799 0.00002845
0.50849307 0.31861904 0.32990742 -0.00018933 -0.00012245 -0.00021308
0.56306046 0.43101957 0.57818747 -0.00000879 0.00002602 -0.00016299
0.66060787 0.58146918 0.42077875 -0.00014008 -0.00002588 0.00005681
0.56206524 0.66014427 0.62569249 -0.00006330 0.00005176 -0.00016087
0.65209538 0.27856761 0.35547647 0.00015715 -0.00004726 -0.00021193
0.58491385 0.84015471 0.68496376 0.00006001 0.00006519 0.00013820
0.68956226 0.21467075 0.43740192 0.00026263 0.00001416 0.00004743
0.64048409 0.87690854 0.74063033 -0.00001134 -0.00023760 -0.00000249
0.65117770 0.25925317 0.48737374 -0.00020388 -0.00003633 -0.00009032
0.57484210 0.94266063 0.25448349 0.00010723 0.00029926 -0.00011934
0.67598730 0.92095685 0.45818880 -0.00015312 -0.00009727 -0.00002352
0.36453548 0.66783273 0.39349204 -0.00013440 -0.00001382 -0.00020243
0.38213229 0.61648387 0.57543766 -0.00018618 -0.00001319 0.00011796
0.60420591 0.17382114 0.51305550 -0.00005087 -0.00009712 -0.00018189
0.50243449 0.85631603 0.29144630 0.00004378 0.00012544 -0.00016129
0.50220227 0.90072304 0.28005600 -0.00003091 -0.00005134 -0.00011714
0.78154922 0.90396208 0.60842258 0.00034189 -0.00035333 -0.00006294
0.51227582 0.43717098 0.34864128 0.00008279 -0.00002454 0.00019984
0.45789590 0.72955954 0.66924804 -0.00006907 -0.00001638 0.00016820
0.43683380 0.40850815 0.47799090 0.00018308 0.00004707 -0.00005555
0.46297652 0.67581618 0.34294999 0.00002476 0.00003930 0.00016696
0.42668203 0.33742514 0.48909050 -0.00026302 -0.00008652 -0.00003113
0.44917536 0.37012613 0.48698670 0.00017891 0.00002409 -0.00009072
0.40601555 0.54654825 0.37090668 -0.00022106 -0.00001687 -0.00011820
0.72032982 0.92678398 0.61990750 0.00014572 0.00025024 -0.00001552
0.70152539 0.60636133 0.48101759 0.00021968 -0.00007289 -0.00007729
0.53500652 0.38377765 0.34743711 0.00006570 -0.00001378 0.00019641
0.50752717 0.28484550 0.56455404 -0.00006619 -0.00020272 0.00019058
0.26015455 0.84549850 0.63457137 0.00001688 -0.00029538 0.00001071
0.71353239 0.94720888 0.37358505 0.00015605 0.00024432 -0.00008442
0.50172150 0.90748173 0.21238586 0.00006297 -0.00035910 -0.00001191
0.50272608 0.12098085 0.43918923 0.00018972 -0.00012990 -0.00012152
0.39851633 0.55764693 0.47380653 0.00018524 0.00003406 -0.00002607
0.56212032 0.46990123 0.61749148 0.00002661 -0.00006920 0.00021677
0.45900977 0.21876481 0.48533356 -0.00029705 -0.00006565 0.00003184
0.66521972 0.94375545 0.35386723 -0.00006079 0.00021576 0.00004002
0.39354149 0.87478322 0.35617489 0.00008217 -0.00000824 0.00003676
0.41091296 0.57574439 0.40898159 0.00017564 0.00002768 0.00006085
0.59814477 0.65913367 0.61031395 -0.00007084 0.00002762 -0.00015185
0.62857085 0.84090728 0.37332702 -0.00011103 0.00004352 0.00006923
0.54316801 0.69214088 0.30126178 0.00004054 0.00004980 -0.00021338
0.55425900 0.75577366 0.64709097 -0.00005627 0.00002371 -0.00010411
0.67594945 0.84736407 0.46302605 -0.00012883 0.00004012 0.00001541
0.50144029 0.19271152 0.35147876 -0.00021833 -0.00014798 -0.00016463
0.51432711 0.75053740 0.65160477 -0.00004300 0.00004597 -0.00014993
0.69411480 0.40527073 0.47770622 0.00024087 -0.00001507 -0.00005431
0.59642112 0.47574565 0.32009110 0.00003902 0.00001279 -0.00023890
0.27516589 0.88671190 0.53429055 -0.00012241 0.00020442 0.00008774
0.49339139 0.86160308 0.73638660 -0.00001846 -0.00013637 0.00006900
0.47579119 0.15507264 0.39636737 -0.00015208 -0.00015095 -0.00010491
0.67365038 0.50714701 0.38169837 0.00018191 -0.00004512 -0.00012972
0.59744030 0.90191507 0.75707459 -0.00000754 0.00028214 0.00018020
0.68366373 0.71966410 0.57255554 0.00013779 -0.00002629 0.00012096
0.71740717 0.92983222 0.58077723 0.00003899 0.00020052 0.00004315
0.33080491 0.72387600 0.52929419 -0.00021678 0.00003028 0.00003825
0.69979143 0.64478117 0.44597197 0.00021461 0.00004394 -0.00005309
0.70170170 0.85462677 0.55217975 0.00015342 0.00010303 0.00002166
0.56978124 0.90340137 0.70544279 0.00006636 0.00024503 0.00010877
0.63187277 0.70043570 0.59073031 -0.00010223 0.00001370 -0.00010678
0.46227556 0.38589263 0.34870321 -0.00018290 -0.00010059 -0.00015360
0.60714316 0.94459665 0.27201062 -0.00007109 0.00028614 -0.00015303
0.50320601 0.93553549 0.24858922 0.00008864 0.00029046 -0.00008208
0.54748142 0.55961317 0.30719906 0.00003384 0.00006039 -0.00023441
0.47852632 0.26659930 0.40983656 0.00022160 0.00000158 0.00004859
0.36883941 0.73286754 0.42427421 0.00013512 0.00005354 0.00005656
0.57533920 0.73521990 0.30705196 0.00005930 -0.00002806 -0.00020813
0.57877445 0.58842224 0.31176960 0.00006427 0.00007662 -0.00021622
0.66114801 0.40940008 0.42658186 -0.00019411 -0.00001961 0.00003479
0.37573397 0.67467827 0.37427828 -0.00014765 -0.00005665 -0.00012823
0.44469768 0.93050140 0.23463151 -0.00008165 0.00033767 -0.00014881
0.37260577 0.88515866 0.67327756 -0.00006018 0.00024153 0.00004323
0.35704741 0.69798869 0.39510390 -0.00022383 -0.00003044 -0.00003267
0.63145477 0.34710729 0.33911821 0.00010601 -0.00003880 -0.00020946
0.68578815 0.25385776 0.47995797 0.00020559 -0.00008156 0.00006850
0.44094938 0.38767481 0.44991636 0.00020768 0.00003314 -0.00003709
0.61845690 0.66085386 0.63370001 0.00010695 -0.00002276 0.00016021
0.79509234 0.91397548 0.50074923 0.00007263 -0.00032897 0.00000850
0.52705145 0.85043460 0.70410794 -0.00001147 0.00008986 0.00018280
0.65681309 0.94690782 0.30672082 0.00005510 0.00026168 -0.00018048
0.45127141 0.65921539 0.64749265 -0.00003581 -0.00005113 0.00017729
0.64104575 0.48499861 0.54267132 -0.00016523 0.00003280 -0.00010195
0.41520226 0.49073547 0.46232161 0.00019303 0.00001001 -0.00001638
0.47154573 0.06472512 0.42562369 -0.00067071 -0.00012611 -0.00001398
0.31578237 0.90920448 0.32272214 -0.00010665 0.00027250 -0.00005707
0.43428445 0.88798749 0.71685714 -0.00009195 0.00020592 0.00007407
0.35435703 0.62325460 0.44787881 -0.00021397 -0.00001570 -0.00010106
0.53824133 0.87157583 0.29389414 -0.00003068 0.00012523 -0.00016043
0.66341174 0.13946441 0.35082075 0.00030663 0.00009958 -0.00022772
0.29829654 0.88656491 0.56469935 -0.00002802 0.00024287 0.00005085
0.59001940 0.81503808 0.34449729 -0.00005192 0.00001492 0.00012937
0.48024306 0.34850493 0.34147233 -0.00020207 -0.00012683 -0.00016506
0.47028136 0.34018862 0.39547116 0.00019674 -0.00001881 0.00008117
0.66047019 0.88143182 0.58101463 -0.00006943 0.00002972 -0.00004327
0.63628507 0.51386696 0.55341142 -0.00011657 0.00000044 -0.00014089
0.37843642 0.73357624 0.57244712 0.00010997 0.00005536 -0.00006862
0.67424047 0.88696826 0.45326993 -0.00007337 -0.00000378 0.00001237
0.66621393 0.51895189 0.56529367 0.00014947 -0.00007021 0.00012870
0.65087408 0.17105761 0.46956196 -0.00018826 -0.00005149 -0.00008859
0.45018166 0.40999353 0.56671369 -0.00020278 -0.00010616 0.00011247
0.37768984 0.57843387 0.54595608 -0.00019550 -0.00013456 0.00004945
0.42059681 0.92541730 0.26393944 0.00001671 0.00026875 -0.00003332
0.26459351 0.88781720 0.50830257 -0.00019717 0.00020827 0.00002397
0.76400828 0.93051511 0.34691331 0.00042967 -0.00010947 -0.00040374
0.31816745 0.88693470 0.48159993 0.00015672 0.00012170 -0.00004307
0.42777520 0.86809081 0.30395216 -0.00004692 0.00012099 -0.00017441
0.46043840 0.63027900 0.60923445 0.00008670 0.00007434 -0.00013179
0.46102667 0.50587755 0.36724266 0.00015011 0.00000169 0.00012660
0.61462259 0.37180337 0.32953241 0.00014525 -0.00005172 -0.00019758
0.61794859 0.59010029 0.36461848 -0.00013458 -0.00002054 0.00011798
0.62399423 0.56989998 0.57559681 -0.00008773 0.00000040 -0.00014725
0.61927742 0.81803036 0.62350273 -0.00007222 0.00006109 -0.00006115
0.44811830 0.35791960 0.36914518 -0.00026023 0.00003053 -0.00009955
0.52145046 0.57366115 0.30647141 0.00004900 0.00001678 -0.00023995
0.58203250 0.30672643 0.57997131 0.00003026 -0.00013022 0.00020575
0.69564748 0.88569182 0.70677507 -0.00007359 -0.00028879 -0.00017207
0.53926229 0.67045432 0.33181944 -0.00004374 0.00005430 0.00017784
0.51382828 0.49678198 0.59148204 0.00002397 0.00004052 -0.00017538
0.45619035 0.72903490 0.34002563 0.00005777 0.00002912 0.00015844
0.66314089 0.49512798 0.43004635 -0.00016953 -0.00003877 0.00006121
0.67419225 0.91966581 0.55315250 -0.00019039 0.00018936 -0.00006903
0.47557786 0.16402802 0.48614120 -0.00015382 -0.00013337 0.00007776
0.76052827 0.90084338 0.61081105 -0.00009577 -0.00028419 -0.00008692
0.69146222 0.46918392 0.50592697 0.00021354 -0.00004209 0.00000986
0.58717847 0.11620558 0.51289117 0.00000679 -0.00012818 -0.00023069
0.36528549 0.72245604 0.43974653 0.00014129 0.00005683 0.00004264
0.64895004 0.67141247 0.61137700 0.00011918 -0.00004977 0.00014795
0.66978681 0.55756700 0.48130402 -0.00016020 -0.00000371 -0.00001334
0.49654108 0.32333323 0.33509898 -0.00017300 -0.00008758 -0.00021114
0.43390861 0.41481611 0.46131101 0.00021085 0.00002394 -0.00003690
0.41404283 0.63026184 0.38686413 0.00015550 0.00000895 0.00011114
0.52928168 0.87346119 0.80474651 0.00009739 0.00008895 0.00062996
0.37338075 0.66586655 0.46080008 0.00015198 0.00005340 0.00003612
0.31478211 0.80232835 0.44075114 -0.00019558 0.00008478 -0.00006838
0.61278629 0.33240473 0.32935435 0.00005881 -0.00009578 -0.00023412
0.49963576 0.92988557 0.30996597 0.00003272 0.00027554 -0.00006648
0.42699340 0.44566360 0.45052791 0.00022965 -0.00000121 -0.00000088
0.33199614 0.83016205 0.51657587 0.00008414 0.00003584 -0.00003403
0.76015669 0.95166337 0.37955412 -0.00032285 0.00030795 0.00005224
0.59027404 0.41583189 0.31960860 0.00003753 -0.00004406 -0.00024259
0.47937524 0.69288576 0.66529238 -0.00003864 -0.00004243 0.00016846
0.69710964 0.53097957 0.44235525 0.00023278 0.00001395 0.00001594
0.61245000 0.87293667 0.75210148 0.00008327 -0.00023401 0.00002803
0.50028771 0.35255516 0.36384183 0.00008576 -0.00001152 0.00017878
0.56160086 0.80823725 0.68728173 0.00000864 0.00004270 0.00017197
0.61073494 0.87660927 0.35757083 -0.00006199 0.00000326 0.00006978
0.38744250 0.60668302 0.57829922 -0.00011308 -0.00011480 0.00017191
0.68839431 0.85262704 0.58722711 0.00010901 0.00001397 0.00009790
0.62363470 0.38595372 0.33401439 0.00012557 0.00008124 -0.00020738
0.62762296 0.14885929 0.32821989 0.00019268 -0.00006738 -0.00032646
0.56249100 0.23843531 0.32346699 0.00000120 -0.00003542 -0.00029367
0.29488024 0.87920237 0.64620936 -0.00016368 0.00025024 -0.00001019
0.36436602 0.82727039 0.64536130 -0.00014140 0.00006490 0.00011792
0.48074195 0.05134365 0.40797099 -0.00028845 -0.00076507 -0.00019273
0.55821377 0.60310072 0.64620680 0.00003751 -0.00001170 0.00019104
0.66991502 0.61681759 0.45195910 -0.00013478 0.00001119 0.00003173
0.57308578 0.74023426 0.33788830 -0.00007977 0.00003211 0.00012293
0.68715656 0.32777569 0.49088040 0.00018684 -0.00015404 0.00015448
0.38262683 0.73900950 0.58155733 0.00010410 0.00005846 -0.00007766
0.68418151 0.27143908 0.48849449 0.00020839 -0.00008409 0.00004896
0.46508378 0.25280070 0.51716077 -0.00008559 -0.00015730 0.00025847
0.42775285 0.53324938 0.59253734 -0.00008958 -0.00008014 0.00022308
0.24195911 0.85303897 0.66027802 -0.00056210 0.00006785 0.00047182
0.52520138 0.90910470 0.22261074 0.00007086 -0.00023303 -0.00004363
0.65946561 0.11101571 0.45887950 -0.00019622 -0.00011838 -0.00006875
0.61575615 0.63627565 0.59418881 -0.00009873 0.00002674 -0.00009923
0.43630308 0.57222480 0.61278844 -0.00020448 0.00002986 0.00016357
0.42439416 0.47888759 0.56756610 -0.00020737 -0.00004447 0.00011492
0.67906129 0.88989258 0.47815004 -0.00006727 0.00001874 -0.00000368
0.68828160 0.89067703 0.63957369 0.00005458 -0.00012696 0.00001080
0.63711506 0.46184641 0.38285005 -0.00014693 -0.00003148 0.00011633
0.66975498 0.32279825 0.37614816 0.00017875 -0.00010852 -0.00015991
0.71804106 0.92513692 0.63624507 0.00009781 0.00025076 0.00015359
0.49380767 0.50589734 0.58808893 0.00006101 0.00001702 -0.00017061
0.35813373 0.91475123 0.31066698 -0.00007877 0.00024302 -0.00012691
0.53196955 0.70819980 0.32958061 -0.00004743 0.00003167 0.00015624
0.48226690 0.93305421 0.25150752 -0.00006234 0.00026149 -0.00003964
0.61802000 0.71145016 0.64323860 0.00017990 0.00000444 0.00011843
0.58040178 0.55791014 0.31304258 0.00003555 -0.00001729 -0.00023618
0.64220428 0.63481694 0.38896194 -0.00011941 -0.00000396 0.00010342
0.56765592 0.36155525 0.31738350 0.00000615 0.00003349 -0.00025496
0.44156951 0.70898509 0.65756351 -0.00005618 -0.00001128 0.00018196
0.27226990 0.85856342 0.49744120 -0.00010475 -0.00012356 -0.00004025
0.62288558 0.24526794 0.55438930 0.00015938 -0.00021089 0.00013551
0.42949113 0.85571396 0.79545999 -0.00017462 -0.00034215 0.00043843
0.67136770 0.24750422 0.51063949 0.00024392 -0.00009560 0.00001810
0.58544624 0.80979139 0.30917555 0.00009398 0.00007233 -0.00015866
0.33860001 0.87726802 0.72298539 -0.00017083 0.00027631 0.00016663
0.59642375 0.20842898 0.55674601 0.00009404 -0.00016134 0.00021865
0.46524721 0.90218431 0.22882584 0.00004623 -0.00024714 -0.00005725
0.66777247 0.59466654 0.50565690 -0.00013912 -0.00000308 -0.00003337
0.41366526 0.51507455 0.50408721 0.00012165 0.00001105 -0.00004668
0.64028966 0.88499951 0.77303374 0.00018646 -0.00023051 0.00059955
0.31804618 0.84898019 0.60132068 -0.00014180 -0.00002576 0.00005161
0.37760210 0.74786592 0.35397473 -0.00014225 -0.00000399 -0.00014115
0.66079021 0.33021662 0.53929627 0.00018821 -0.00001972 0.00013381
0.68764937 0.76977187 0.57365304 0.00014201 -0.00000355 0.00010793
0.53288639 0.23354220 0.36204594 0.00020307 -0.00000176 0.00015459
0.66587681 0.92349929 0.59059787 -0.00013180 0.00032496 -0.00001816
0.62595183 0.14137125 0.36842445 -0.00010509 -0.00015073 0.00014323
0.51395643 0.48366112 0.61964691 -0.00006088 -0.00013300 0.00018507
0.57936710 0.62492490 0.34262142 -0.00008197 -0.00001126 0.00014912
0.49850130 0.22601375 0.49754527 0.00023064 0.00000090 -0.00006433
0.34699026 0.82948345 0.62814295 -0.00014714 0.00008015 0.00012282
0.54781085 0.32847750 0.58642292 -0.00000888 -0.00008544 0.00021812
0.66255772 0.08221095 0.40218768 -0.00024233 -0.00017336 0.00006836
0.65152603 0.24022776 0.35503268 0.00008146 0.00004500 -0.00028775
0.34454760 0.65706080 0.45948413 -0.00021532 -0.00001521 -0.00009362
0.47702885 0.49751565 0.32379729 -0.00005900 -0.00005093 -0.00022290
0.44190755 0.92791677 0.26126453 -0.00006646 0.00024942 -0.00004635
0.54736531 0.89888239 0.73026526 -0.00003845 0.00021985 0.00006102
0.25092307 0.86032581 0.45042816 -0.00008724 -0.00019117 -0.00002568
0.69051439 0.46148947 0.41838422 0.00021515 0.00000267 -0.00007685
0.41657585 0.88250607 0.75872344 -0.00008832 0.00025434 0.00026276
0.67140210 0.81322241 0.44611990 -0.00014512 0.00002557 0.00003450
0.34490797 0.84536773 0.42229855 0.00007590 0.00001399 0.00003689
0.61969632 0.94660074 0.26424819 0.00004365 0.00033322 -0.00020101
0.62171066 0.26886564 0.55941492 0.00012784 -0.00006617 0.00017399
0.50447553 0.75694346 0.68369168 -0.00005381 0.00005129 0.00017623
0.64228773 0.58160245 0.38909781 -0.00016145 -0.00003682 0.00006927
0.56695235 0.79180241 0.68233269 0.00003480 -0.00005346 0.00015973
0.34123534 0.69898468 0.43101823 -0.00021327 -0.00000879 -0.00006823
0.50606501 0.57440430 0.30824322 -0.00015631 0.00008577 -0.00022488
0.45766798 0.32233465 0.43944380 0.00020080 -0.00003113 -0.00001747
0.43267608 0.87455183 0.66734809 0.00001777 -0.00000408 -0.00015485
0.53313154 0.62076110 0.62206030 -0.00001503 0.00003055 -0.00017181
0.40121531 0.92639530 0.22850586 -0.00015008 0.00049055 0.00024395
0.56540936 0.69552624 0.30519500 0.00002730 0.00000358 -0.00021987
0.50532615 0.90684777 0.22424494 0.00004868 -0.00022425 -0.00007362
0.40375862 0.60108894 0.59555030 -0.00014425 -0.00006884 0.00013733
0.69387567 0.35878402 0.46098673 0.00023783 -0.00014269 0.00004903
0.56495005 0.39527550 0.34579262 -0.00003194 0.00001326 0.00020043
0.70341593 0.68251377 0.46785119 0.00020004 0.00006890 -0.00001852
0.64726943 0.09942760 0.53027129 0.00028007 -0.00018207 0.00029589
0.68112814 0.55028194 0.54707414 0.00017659 -0.00006528 0.00009802
0.62140357 0.33349103 0.53574753 -0.00010248 -0.00004064 -0.00017054
0.52014315 0.29807556 0.57332534 -0.00003450 -0.00012241 0.00022066
0.57788855 0.37396908 0.31812060 0.00005248 -0.00008479 -0.00023052
0.27911717 0.90837193 0.28692734 -0.00023717 0.00056662 -0.00070435
0.47502655 0.68709123 0.63086861 0.00005201 0.00003259 -0.00016169
0.57538998 0.13041702 0.54916853 -0.00012302 -0.00003575 0.00028327
0.33623731 0.81593084 0.47221449 0.00008778 0.00006980 0.00002430
0.38553825 0.84576601 0.67050207 -0.00011163 0.00002798 0.00013068
0.50067133 0.69687915 0.33095157 0.00001053 0.00004683 0.00016966
0.42698136 0.57658899 0.56472516 0.00011738 0.00002995 -0.00011155
0.67053598 0.83206719 0.37671325 0.00015600 0.00006184 -0.00007773
0.61013031 0.91297853 0.28286940 0.00004344 -0.00011173 -0.00004920
0.47256926 0.28758401 0.41284862 0.00023276 -0.00002742 0.00004976
0.67134362 0.87792861 0.62251705 0.00011879 0.00010893 0.00012268
0.47409678 0.29635876 0.35554790 -0.00019064 -0.00006325 -0.00017407
0.66463488 0.22325023 0.51600820 0.00018761 -0.00012542 0.00013420
0.56405723 0.84427202 0.66143316 -0.00004275 0.00004886 -0.00008815
0.57682025 0.31684032 0.32012719 -0.00000330 -0.00006567 -0.00026780
0.29820022 0.84937584 0.63661492 -0.00003019 -0.00014547 0.00001557
0.32417527 0.86412311 0.47671798 0.00004700 0.00002007 0.00002933
0.35692617 0.81236660 0.36101982 -0.00012248 0.00004570 -0.00015317
0.67745548 0.88305050 0.71496409 0.00008633 -0.00023691 -0.00004300
0.47487435 0.30981934 0.39862600 0.00018460 -0.00005002 0.00012043
0.40659523 0.50013208 0.55366081 -0.00021205 -0.00002283 0.00012437
0.52855754 0.92159420 0.32087207 -0.00002198 0.00005796 0.00019373
0.42285371 0.38360220 0.40157616 -0.00022253 -0.00005281 -0.00004814
0.50561345 0.33332762 0.57767916 -0.00007493 -0.00017097 0.00018752
0.68476379 0.92727000 0.57011539 0.00003548 0.00030097 -0.00001192
0.37917611 0.81784111 0.38034803 0.00008849 0.00006271 0.00008023
0.44902143 0.26113594 0.40425965 -0.00017986 -0.00018798 -0.00016200
0.68153405 0.86724019 0.60331100 0.00010778 0.00013029 0.00013647
0.45664877 0.93129355 0.24022990 0.00006557 0.00031127 -0.00006625
0.69700217 0.86781991 0.56993222 0.00015776 0.00014092 0.00004128
0.65635723 0.60477960 0.41132540 -0.00015546 -0.00002070 0.00005380
0.61248094 0.08312266 0.31549901 -0.00026450 0.00013417 -0.00070367
0.62007987 0.56550574 0.32997108 0.00010721 -0.00003691 -0.00018507
0.70026106 0.57964838 0.45928630 0.00023086 0.00006242 -0.00005011
0.41047344 0.73478121 0.36741295 0.00009342 0.00003756 0.00013807
0.54021096 0.82726693 0.29578206 0.00006066 0.00000239 -0.00017682
0.64836091 0.23495707 0.53529507 0.00015737 -0.00006392 0.00015694
0.60524660 0.68136126 0.32043254 0.00010534 0.00005580 -0.00019407
0.32660505 0.80644393 0.40778521 -0.00017462 0.00008380 -0.00010798
0.45070982 0.91214341 0.32456791 0.00005823 0.00009373 0.00019849
0.38901997 0.47151825 0.46591252 -0.00022723 -0.00006904 0.00002076
0.48338413 0.93434602 0.23784742 -0.00001441 0.00031350 -0.00020304
0.69777799 0.48490140 0.47103012 0.00021341 -0.00010189 0.00003039
0.32836822 0.88495296 0.44061267 0.00017062 -0.00007493 0.00000807
0.61303049 0.42906538 0.32787931 0.00008355 -0.00013031 -0.00024201
0.33592165 0.88522738 0.26586604 0.00001010 -0.00032494 -0.00006618
0.37401032 0.76049393 0.40332988 0.00010618 0.00006521 0.00010252
0.67331326 0.13528863 0.36090544 0.00032859 -0.00008851 -0.00024531
0.64182240 0.75671208 0.58883291 -0.00010208 0.00001650 -0.00008669
0.38898039 0.84302139 0.32747248 -0.00010050 0.00002240 -0.00014891
0.47710887 0.79580104 0.65924764 0.00001517 0.00007089 -0.00011842
0.53084016 0.17793326 0.50430745 0.00012900 0.00000554 -0.00015249
0.34435925 0.70453751 0.55584294 -0.00020303 0.00003725 0.00009009
0.63545597 0.90969467 0.32956165 0.00015396 0.00000507 -0.00011925
0.30804923 0.88151008 0.63567483 -0.00016102 0.00023295 0.00000161
0.38588402 0.64556903 0.36928454 -0.00011381 0.00000514 -0.00020094
0.67432988 0.73298275 0.50595021 -0.00015743 0.00003126 -0.00001993
0.54566228 0.59251893 0.33567008 -0.00000011 -0.00003575 0.00016425
0.70759857 0.84855795 0.47196847 0.00015202 0.00011934 -0.00004882
0.41994572 0.36061862 0.48761973 -0.00022148 -0.00015372 0.00005417
0.57391316 0.28736299 0.54609883 -0.00001217 -0.00000615 -0.00022061
0.40778819 0.54096186 0.43541592 0.00018490 0.00002532 0.00001945
0.60332859 0.44386426 0.56746632 -0.00007172 0.00000695 -0.00016638
0.62345064 0.83021200 0.36844164 -0.00009877 0.00005662 0.00008868
0.65109515 0.78720689 0.40144113 -0.00012868 0.00003366 0.00005480
0.41423550 0.63025492 0.61627960 -0.00013204 0.00000342 0.00016848
0.37852675 0.78150618 0.39048171 0.00011093 0.00005665 0.00009339
0.42130896 0.89360482 0.27423483 -0.00003554 -0.00013237 -0.00008942
0.67909825 0.07576794 0.36961481 0.00018169 -0.00059316 -0.00032853
0.43485469 0.63719678 0.63279611 -0.00007801 -0.00009052 0.00015788
0.66526270 0.46744308 0.44034433 -0.00017806 -0.00000698 0.00004000
0.41339776 0.87480384 0.79399091 -0.00013687 0.00026736 0.00055936
0.65473598 0.43798637 0.51251191 -0.00016577 -0.00000472 -0.00006400
0.65487784 0.17108686 0.45841330 -0.00020190 -0.00003822 -0.00004967
0.47591934 0.07654547 0.46649736 -0.00041126 -0.00024825 0.00008474
0.66883296 0.51489395 0.47034377 -0.00017077 -0.00004675 -0.00001698
0.55803657 0.53484833 0.60087866 -0.00005284 0.00001856 -0.00017383
0.66963291 0.91912311 0.43779498 -0.00015763 -0.00008307 0.00000397
0.58742362 0.94111156 0.28813148 -0.00002833 0.00025980 -0.00015198
0.34814796 0.71741062 0.40382618 -0.00017184 -0.00006189 -0.00012241
0.46596539 0.21531495 0.49855676 -0.00017835 -0.00026031 0.00016295
0.30110994 0.84658223 0.67276323 -0.00003805 -0.00020565 0.00004208
0.45408741 0.89698756 0.32494122 -0.00000903 -0.00002659 0.00010037
0.61757874 0.45155016 0.55977356 -0.00009130 -0.00000668 -0.00016467
0.66508120 0.10029802 0.43741050 -0.00018928 -0.00007470 -0.00005102
0.54354477 0.54981667 0.60583711 -0.00001202 0.00002714 -0.00016867
0.36383104 0.67512375 0.57701337 -0.00016835 -0.00000794 0.00012053
0.32540777 0.73993409 0.52383602 -0.00020838 -0.00002270 -0.00001248
0.58982843 0.54375553 0.34837809 -0.00006214 -0.00000630 0.00021832
0.66277361 0.54681230 0.42731553 -0.00017357 -0.00002170 0.00001568
0.36132732 0.61644346 0.53228730 -0.00020683 -0.00003380 0.00006775
0.32328591 0.89698327 0.44755542 0.00017994 0.00021785 0.00015760
0.36549789 0.79126400 0.40624994 0.00012649 0.00003407 0.00007489
0.50846380 0.09234208 0.45271513 0.00019391 -0.00019454 -0.00018272
0.61009848 0.38774443 0.58746016 0.00010045 -0.00006526 0.00021791
0.54394215 0.06335755 0.34646693 -0.00007087 -0.00055361 -0.00008622
0.33140612 0.79266083 0.58575636 -0.00017501 -0.00004569 0.00005082
0.65438938 0.19992259 0.43181989 -0.00021293 -0.00009901 -0.00005251
0.63146162 0.42384458 0.58203810 0.00014260 -0.00005521 0.00017052
0.66015720 0.94589460 0.32267311 0.00004451 0.00021635 0.00006987
0.67572325 0.31911618 0.38566172 0.00023691 -0.00012241 -0.00006196
0.54807663 0.37322852 0.59682667 -0.00004963 -0.00012069 0.00022643
0.63551700 0.59248191 0.56794280 -0.00011979 -0.00001765 -0.00010075
0.60773236 0.85237849 0.31970492 0.00009019 0.00004939 -0.00013528
0.69370019 0.38308099 0.43858370 0.00024197 -0.00000670 -0.00006076
0.48295924 0.22565678 0.36195734 -0.00012955 -0.00015019 -0.00024515
0.58826911 0.27177194 0.57151306 0.00001683 -0.00014705 0.00020077
0.64632761 0.67931765 0.34919605 0.00010444 0.00005341 -0.00019353
0.31325626 0.84831357 0.73804998 -0.00018573 -0.00039318 0.00047627
0.60141313 0.61718142 0.63501000 0.00011421 0.00000439 0.00015277
0.69262934 0.32302791 0.44177553 0.00025295 0.00006709 0.00005705
0.47272664 0.14559951 0.46303636 -0.00011710 -0.00019889 0.00001381
0.47994116 0.69956011 0.33484355 0.00003228 0.00005592 0.00017138
0.44004628 0.57340229 0.33423114 -0.00017907 0.00005883 -0.00018891
0.47250819 0.07565700 0.40791768 -0.00053983 -0.00015244 -0.00005205
0.56507736 0.71140289 0.63500655 -0.00005466 0.00002284 -0.00012194
0.65787274 0.07243591 0.52260780 0.00051189 -0.00001221 0.00065664
0.61480492 0.86415070 0.32393488 0.00006240 0.00007473 -0.00015348
0.28927752 0.88202178 0.60641682 -0.00009988 0.00023099 0.00013545
0.53510118 0.16207302 0.36976621 0.00011255 -0.00013343 0.00019038
0.60835677 0.71622539 0.64992672 0.00001535 0.00000884 0.00021830
0.66420996 0.63095850 0.58724517 0.00014277 -0.00006612 0.00013817
0.61724675 0.67224848 0.32718349 0.00011002 -0.00005001 -0.00019430
0.59067219 0.07765758 0.54661918 0.00007629 -0.00019625 0.00045316
0.52504569 0.31877300 0.35566744 0.00003205 -0.00000661 0.00020136
0.60416031 0.06884586 0.54472870 0.00014332 -0.00000762 0.00054599
0.39875370 0.57455915 0.50972003 0.00014966 0.00004093 -0.00003295
0.36650079 0.76455361 0.41464797 0.00013769 0.00004090 0.00004027
0.48143429 0.77653825 0.29793406 -0.00005884 0.00002083 -0.00019835
0.69707698 0.79983574 0.55591172 0.00016647 0.00001540 0.00001437
0.55816644 0.20700207 0.32579958 0.00010044 -0.00020293 -0.00029455
0.74103415 0.94844568 0.39330542 0.00013175 0.00029074 -0.00015792
0.30088547 0.84529811 0.68744171 -0.00001228 -0.00025292 0.00005211
0.68806654 0.34365311 0.49107561 0.00024383 -0.00002780 -0.00000648
0.47629780 0.62651438 0.31100929 -0.00010382 -0.00001816 -0.00019828
0.55056828 0.16933227 0.32996503 0.00007471 -0.00012239 -0.00023433
0.42699769 0.61144370 0.37700653 0.00012118 0.00006572 0.00013265
0.27109674 0.88024735 0.60452974 -0.00005990 0.00025556 0.00006207
0.61850852 0.91721797 0.24389134 0.00008914 -0.00023736 -0.00014607
0.76084656 0.93106222 0.62034446 0.00019182 0.00046713 0.00011757
0.56553841 0.91457754 0.20902546 0.00014123 -0.00038633 -0.00018194
0.39477831 0.46451613 0.50095737 -0.00025854 -0.00005826 -0.00002492
0.33577028 0.91436243 0.28744340 -0.00012930 0.00032966 -0.00010075
0.33201680 0.84068972 0.46329695 0.00007717 0.00004369 0.00002713
0.65390420 0.08104811 0.47371879 -0.00031190 0.00016180 -0.00009586
0.52007347 0.36561662 0.59110618 -0.00018101 -0.00014291 0.00017985
0.64201850 0.58537406 0.55886096 -0.00014092 0.00000484 -0.00007942
0.66109896 0.13816480 0.42788148 -0.00017503 -0.00014241 -0.00003293
0.43903306 0.58960229 0.58183253 0.00007050 0.00004362 -0.00012791
0.64839786 0.74840349 0.57828122 -0.00011595 0.00002161 -0.00008237
0.78808415 0.91855967 0.43866026 0.00008255 -0.00034120 -0.00013860
0.42278233 0.35283297 0.42169648 -0.00023311 -0.00009849 -0.00013125
0.67344654 0.67343885 0.47197795 -0.00015948 0.00001155 0.00001243
0.34400403 0.77315027 0.59676903 -0.00016735 0.00005015 0.00013053
0.64161342 0.30278370 0.34650049 0.00015037 -0.00004694 -0.00020141
0.47766966 0.33912298 0.38597909 0.00017330 -0.00003113 0.00010570
0.61196488 0.75510371 0.65497553 0.00003722 0.00004151 0.00020910
0.39451084 0.87922740 0.76953572 0.00003457 0.00041666 -0.00000877
0.70045197 0.65954137 0.51159161 0.00018391 -0.00005661 0.00009460
0.62731683 0.20968989 0.54539698 0.00016871 -0.00006962 0.00019993
0.40578845 0.77752560 0.36341348 0.00009406 0.00005328 0.00012076
0.50922590 0.39060256 0.35443148 0.00005998 -0.00001010 0.00016929
0.32962742 0.73492575 0.53689402 -0.00018262 -0.00002084 0.00010346
0.42044631 0.50358367 0.42284042 0.00018807 0.00000454 0.00007454
0.45551175 0.58494312 0.35847822 0.00007408 0.00003617 0.00015247
0.34760439 0.63912517 0.47438449 -0.00022130 -0.00002780 -0.00000215
0.39393541 0.67558223 0.61507374 -0.00016066 -0.00000965 0.00012809
0.53242362 0.47686291 0.31144363 -0.00005080 -0.00002970 -0.00022879
0.63934529 0.48066196 0.38544583 -0.00015782 -0.00004721 0.00009412
0.48950979 0.06192205 0.49100426 -0.00060900 -0.00007519 0.00002551
0.60727471 0.63208950 0.32214502 0.00011882 0.00001956 -0.00019185
0.66655630 0.46968365 0.47858953 -0.00016591 -0.00000325 -0.00002013
0.23298569 0.85705656 0.46624452 -0.00001777 -0.00023831 0.00002532
0.49949640 0.34115881 0.36600241 0.00010001 -0.00002169 0.00017003
0.45131445 0.89757079 0.26527432 -0.00000405 -0.00013146 -0.00007219
0.47031146 0.83399206 0.29572013 -0.00001697 -0.00001768 -0.00016573
0.42153260 0.57718587 0.39193356 0.00014334 0.00003218 0.00011407
0.42726004 0.71519327 0.61631656 0.00009400 0.00005008 -0.00011513
0.48730192 0.29621169 0.34475964 -0.00009139 -0.00008710 -0.00024900
0.51692033 0.65783405 0.66131270 -0.00002549 -0.00007791 0.00017254
0.65679932 0.88033599 0.72095037 0.00001615 -0.00021830 0.00006527
0.48255587 0.60347396 0.61086780 0.00004079 0.00004993 -0.00016135
0.36408132 0.61159074 0.42149264 -0.00021847 0.00001041 -0.00008735
0.41078478 0.40384296 0.42292899 -0.00023632 -0.00006333 0.00002242
0.51681542 0.62493604 0.62291527 0.00000237 0.00001583 -0.00016093
0.65271467 0.91566807 0.30438051 0.00006922 -0.00012867 -0.00010134
0.53454292 0.41622066 0.34522235 0.00003862 -0.00002171 0.00019488
0.59350795 0.87400830 0.71611661 0.00004264 -0.00012791 0.00007991
0.49882898 0.35194963 0.54496866 0.00011687 -0.00002698 -0.00016929
0.56966251 0.86690384 0.76928198 0.00004744 -0.00023929 -0.00000366
0.69152588 0.35840985 0.42778257 0.00023695 -0.00008060 -0.00005713
0.66838658 0.65192944 0.44232166 -0.00015374 -0.00000872 0.00005072
0.63442206 0.41640815 0.53856093 -0.00016108 -0.00001051 -0.00008892
0.52976245 0.90823859 0.23835918 0.00001403 -0.00016651 -0.00012122
0.33130291 0.84601372 0.53775841 0.00004037 0.00006973 -0.00001340
0.54167402 0.22534026 0.32755247 -0.00008599 -0.00003255 -0.00026895
0.42767113 0.48420817 0.41579962 0.00019426 0.00000830 0.00007314
0.69619536 0.84076363 0.42496571 0.00013760 0.00007668 -0.00010052
0.66979456 0.63625413 0.44941750 -0.00015367 0.00000051 0.00002798
0.39199764 0.65344584 0.60435778 -0.00014198 -0.00002738 0.00013525
0.62316597 0.42419809 0.36951590 -0.00011518 -0.00005561 0.00014175
0.55597317 0.18284874 0.55241799 -0.00009550 -0.00022365 0.00020769
0.46985048 0.14765085 0.42635307 -0.00015850 -0.00018590 0.00005649
0.33751971 0.85408837 0.56505978 0.00003076 0.00008425 -0.00003580
0.43852302 0.27586001 0.43297583 -0.00022491 -0.00019944 -0.00002058
0.59190303 0.77178013 0.34605753 -0.00011163 0.00005249 0.00009848
0.57164598 0.79907203 0.33615604 -0.00006935 0.00003138 0.00013226
0.34803101 0.66740608 0.53570020 -0.00020389 -0.00005161 0.00002075
0.35214314 0.87696439 0.74332505 -0.00016966 0.00036795 0.00012947
0.33371288 0.87834233 0.34331727 -0.00009078 -0.00009856 -0.00011506
0.48699740 0.51720589 0.62156659 -0.00012592 -0.00002515 0.00018870
0.68802786 0.88732946 0.67824554 0.00007657 -0.00018166 0.00007418
0.46840036 0.10784797 0.41437444 -0.00036602 -0.00018165 -0.00009835
0.38672003 0.88668352 0.35942435 0.00001992 0.00005721 0.00008539
0.42722818 0.90694064 0.20208876 -0.00008264 -0.00023267 -0.00061586
0.66345906 0.60004395 0.52175802 -0.00015803 -0.00001250 -0.00003825
0.60779423 0.15496945 0.32765827 -0.00005513 0.00007398 -0.00012641
0.48423734 0.59460890 0.34305751 0.00005512 0.00002494 0.00016359
0.62210286 0.71674490 0.36756864 -0.00011721 0.00000881 0.00010264
0.24705178 0.86674905 0.37081292 0.00022802 -0.00024627 0.00004237
0.53215963 0.12048113 0.53933245 -0.00007999 -0.00007966 0.00038801
0.70036602 0.11659433 0.44071847 0.00043100 -0.00019329 0.00005482
0.58707094 0.18432467 0.32660979 -0.00001565 0.00007302 -0.00029093
0.47121805 0.41746607 0.54666823 0.00013024 0.00003230 -0.00012873
0.56139529 0.10544831 0.50892013 0.00006458 -0.00002148 -0.00023027
0.63155627 0.94026613 0.35274309 -0.00000176 0.00028525 -0.00003900
0.47424388 0.62342405 0.61332858 0.00002891 0.00008287 -0.00015628
0.52538717 0.24600676 0.52729362 0.00011261 -0.00001389 -0.00018421
0.35304365 0.82412159 0.36256799 -0.00016192 0.00002468 -0.00008990
0.40370786 0.85502839 0.69413584 -0.00006580 -0.00007140 0.00007831
0.48150140 0.23925239 0.41833606 0.00022428 -0.00003942 0.00004758
0.45699456 0.69970888 0.31048894 -0.00006629 -0.00001189 -0.00019862
0.39322498 0.53886926 0.55227005 -0.00021506 -0.00004978 0.00009365
0.65138847 0.80422056 0.40186858 -0.00013288 0.00002728 0.00005050
0.41335735 0.53623825 0.52101231 0.00014828 0.00004788 -0.00002872
0.40180621 0.63829088 0.60825568 -0.00012163 -0.00002509 0.00015915
0.42982998 0.72183675 0.31996036 -0.00009621 -0.00001653 -0.00018621
0.68172848 0.76152092 0.58366287 0.00016068 0.00003666 0.00008189
0.37059230 0.89106411 0.24090508 0.00007602 -0.00035275 0.00007258
0.38243243 0.72196060 0.35474026 -0.00017414 -0.00004571 -0.00010324
0.61519283 0.07131952 0.34212944 0.00000285 -0.00054919 -0.00000755
0.69616181 0.69601905 0.42872348 0.00019568 -0.00009532 -0.00005649
0.34269151 0.78303546 0.48973215 0.00011142 0.00005980 -0.00000370
0.66546053 0.07659192 0.34309620 0.00040593 -0.00050810 -0.00058811
0.63497347 0.10696980 0.36941355 -0.00013691 -0.00009894 0.00011835
0.58988523 0.79413849 0.67401469 0.00005886 -0.00002634 0.00016335
0.51557082 0.10798215 0.52779847 -0.00034356 -0.00017485 0.00018942
0.59904015 0.94702822 0.21303266 0.00016265 0.00056040 -0.00047067
0.62017453 0.77559298 0.61523372 -0.00009175 0.00003278 -0.00009229
0.47179601 0.13609453 0.43993148 -0.00007678 -0.00008095 0.00003143
0.60208750 0.94259012 0.28910857 0.00010237 0.00026958 -0.00011249
0.60377330 0.61003566 0.32069317 0.00009055 -0.00001247 -0.00020141
0.68892062 0.55798244 0.41141915 0.00020565 -0.00004103 -0.00009346
0.26922858 0.87217116 0.33518243 0.00010491 -0.00034351 0.00000847
0.80514002 0.93201435 0.48867422 0.00060042 0.00014431 0.00015833
0.69475728 0.80862862 0.56418419 0.00013260 0.00006365 0.00010947
0.68952614 0.74197942 0.41012812 0.00015672 0.00009289 -0.00011655
0.74693614 0.95257509 0.35253149 -0.00009540 0.00038554 0.00010126
0.74900466 0.92001677 0.37320575 -0.00002677 -0.00023880 -0.00011835
0.58585823 0.26207516 0.35383883 -0.00008951 -0.00014054 0.00020939
0.42453781 0.85349661 0.74537206 -0.00001270 -0.00019849 0.00008465
0.74393177 0.90950203 0.68639582 0.00035397 0.00000135 0.00041529
0.57865661 0.85403848 0.30566290 0.00005022 0.00006752 -0.00015368
0.45041740 0.38206092 0.55605537 -0.00017734 -0.00018802 0.00011531
0.52234328 0.26419961 0.56486195 -0.00014615 -0.00011464 0.00019249
0.66122627 0.34219438 0.47473371 -0.00020225 -0.00003550 0.00001373
0.45368832 0.38249525 0.40823245 0.00020292 0.00007730 0.00007680
0.60815978 0.37371451 0.35980278 -0.00010107 -0.00010086 0.00017893
0.42865595 0.39397588 0.38585868 -0.00017546 -0.00006937 -0.00011452
0.70106953 0.67231125 0.51161140 0.00018710 0.00004799 0.00010386
0.68694502 0.50864106 0.52686524 0.00019450 -0.00004043 0.00006528
0.47519428 0.17455736 0.38839167 -0.00023846 -0.00018055 -0.00003822
0.51178551 0.73343176 0.29786694 -0.00000403 0.00008160 -0.00021777
0.66483265 0.36047840 0.53956896 0.00016739 -0.00008774 0.00015502
