-0.576921 -0.168249 -0.263274
-0.272487 -0.308276 0.069282
0.123879 0.085755 -0.449323
-0.017758 0.349857 0.003846
-0.118239 0.179433 0.017938
0.465567 0.086218 0.161271
0.126751 -0.130052 -0.398904
0.259367 0.428078 -0.187115
-0.133788 -0.064676 -0.489207
0.250569 0.006071 -0.222616
0.329484 -0.006593 -0.163816
0.152312 0.492421 -0.227461
0.321788 0.401256 -0.241439
-0.139039 0.143862 -0.347711
0.092966 -0.197892 0.036382
-0.443788 -0.098830 -0.258188
-0.005621 0.262606 0.245444
-0.008368 0.362973 0.155467
0.296202 0.035497 0.346608
-0.016623 -0.258550 -0.420597
-0.170901 0.024815 -0.430864
-0.226474 -0.073005 -0.373126
0.117207 0.470038 0.058897
0.139719 -0.097869 -0.492726
0.368336 0.059788 0.387387
0.058992 0.239727 0.311158
-0.600043 -0.147803 -0.155149
0.127158 -0.153650 0.244132
0.494707 0.186918 -0.003909
0.332192 0.333990 0.319988
-0.515058 -0.148331 -0.264412
-0.207729 -0.013782 -0.343890
-0.404781 -0.111129 -0.282326
0.251974 0.164543 0.373262
-0.494245 -0.189187 -0.257631
0.313639 -0.140066 0.122920
0.293380 0.181680 0.447288
0.011871 0.321477 -0.311832
-0.387049 -0.090170 -0.289616
-0.110103 0.261047 -0.211987
0.412019 0.345337 -0.203727
-0.060849 0.022810 -0.504480
-0.123469 -0.218826 -0.470491
0.390261 0.066065 0.392641
-0.011112 0.397855 0.079559
-0.155521 0.012973 -0.183118
0.260303 -0.177782 0.135918
-0.039103 0.264230 -0.064718
0.291269 0.295799 -0.262393
-0.047675 0.284422 -0.129706
0.316903 0.263102 0.412861
0.433807 0.337785 -0.185447
0.439788 -0.015457 0.045552
-0.455168 -0.156013 -0.204834
0.088613 0.405879 0.204804
-0.047124 0.195023 0.228248
-0.437296 -0.054213 -0.252274
0.091178 0.177867 -0.458342
0.028935 -0.165345 -0.289862
0.111143 0.415549 0.203252
0.015001 0.265923 0.264103
0.171990 0.164953 0.371621
0.335020 0.305404 -0.294809
-0.085711 0.291698 -0.289555
0.010016 -0.039443 -0.542731
0.115232 0.435745 0.194779
0.379833 0.254517 -0.164170
-0.060051 0.284782 -0.342044
0.492640 0.262181 0.167591
0.410376 0.350431 -0.170714
0.481522 0.078664 0.054304
0.299325 0.135515 -0.217629
-0.065585 0.080455 0.135671
0.159990 -0.068298 -0.218843
-0.166807 0.090493 -0.204419
-0.075871 0.088095 0.114164
0.000610 0.034957 -0.465618
0.337426 -0.108858 0.208478
0.141534 0.346787 0.304147
0.357382 0.340584 -0.052307
0.433007 0.059323 0.236775
0.122693 -0.158570 -0.490785
-0.374058 -0.110955 -0.216694
-0.202784 -0.283651 -0.120428
-0.231227 -0.086536 -0.369097
-0.197929 -0.205088 -0.276565
0.045145 -0.162805 0.181386
0.034802 -0.115574 -0.241392
0.230753 -0.193320 0.158442
0.469113 0.207496 0.306017
0.159119 0.282020 -0.345703
0.341252 -0.062995 0.265149
0.322370 0.189024 -0.149213
-0.061653 0.225586 -0.408609
-0.169404 0.035444 -0.287421
0.116817 0.457917 0.051491
-0.017687 -0.122664 0.154524
0.140087 -0.141710 -0.105028
-0.237500 -0.261754 -0.208078
-0.081443 0.330738 0.096868
0.008523 0.335058 -0.121605
-0.153669 -0.181646 -0.169647
0.000490 -0.230334 -0.485235
0.020838 -0.120533 0.216272
0.212540 0.395281 0.133327
-0.129526 0.209480 0.019383
-0.070904 -0.261140 -0.386885
-0.178910 -0.018275 -0.439493
0.469983 0.139571 -0.061148
-0.118656 0.074744 -0.014362
-0.497947 -0.148455 -0.294464
-0.073401 0.278855 -0.333219
-0.104549 -0.249702 -0.399154
-0.234305 -0.261617 -0.004154
-0.015193 0.223324 -0.427559
0.418899 0.322731 -0.116788
-0.240625 -0.301797 -0.183079
0.132932 -0.183869 -0.033126
-0.136369 0.093887 -0.087629
-0.207567 -0.185391 -0.305079
-0.101548 0.315621 0.066821
-0.157479 0.020983 -0.202025
-0.499277 -0.187224 -0.245761
-0.095850 0.228001 -0.370023
0.048170 -0.174936 0.021084
0.498495 0.206646 0.056438
-0.360763 -0.186148 -0.257816
-0.104753 0.021352 0.010769
0.035250 0.435038 -0.027378
0.096439 0.391875 0.228423
0.296164 0.092490 0.399163
0.332276 0.040414 0.334909
-0.055404 -0.191101 -0.274314
0.164020 0.140501 -0.438872
0.171515 0.104783 -0.433419
0.089917 -0.188176 0.162194
0.253336 0.135713 -0.337582
-0.334740 -0.119546 -0.231536
-0.039414 0.283656 -0.095873
0.303133 0.368094 -0.026660
-0.261924 -0.279960 0.041661
-0.467490 -0.139844 -0.285225
0.467872 0.059210 0.001664
0.413195 -0.033302 0.167737
-0.120355 0.210785 0.005005
0.019010 0.261057 -0.407998
-0.071059 0.098902 0.121317
0.060251 -0.149953 -0.300705
0.075737 -0.113323 -0.280448
-0.151612 0.162643 -0.174261
-0.007300 0.146475 0.277269
-0.008348 0.314167 -0.030750
-0.119107 0.266441 0.016827
-0.134525 0.187011 0.076066
-0.388513 -0.113681 -0.290687
0.083367 -0.001776 -0.470003
-0.152944 -0.165711 -0.193809
0.432595 -0.030464 0.096736
0.203368 0.261212 -0.313338
-0.166041 -0.046427 -0.466855
0.334869 0.326770 0.333052
0.270622 -0.169892 0.161490
-0.275356 -0.296814 0.076959
-0.019619 0.390698 0.099224
-0.087472 0.276258 -0.012912
-0.153270 0.149553 -0.168377
0.242816 0.089316 -0.337721
0.011231 0.070638 -0.467561
-0.054124 0.015918 0.180742
0.042560 -0.222916 -0.479986
-0.196867 -0.194653 -0.288697
-0.196121 -0.117811 -0.433872
-0.012048 0.332679 -0.231515
0.281356 0.389947 0.212667
-0.533215 -0.146469 -0.243496
0.447132 0.003844 0.011013
-0.070998 -0.053715 0.060732
-0.142196 0.144359 -0.125223
0.458846 0.148000 -0.076337
-0.153531 0.007440 -0.171010
0.181735 0.410415 0.165782
0.133069 -0.049974 -0.308076
0.070871 0.413451 -0.146666
0.298521 -0.073189 -0.074845
0.179763 0.103858 0.373638
0.020014 0.328047 -0.037817
0.074489 -0.073972 0.303430
0.039197 -0.178418 -0.345056
0.447326 0.290323 0.036129
0.418471 0.077442 0.376111
-0.520881 -0.149706 -0.177523
0.206478 -0.018890 0.354834
0.005370 0.269567 0.247208
0.058240 -0.129505 -0.098726
0.444339 0.058626 0.186013
0.063483 0.378108 -0.090993
0.244614 0.424424 -0.122381
0.186368 0.435460 0.194754
0.250155 0.244945 -0.265409
0.151693 -0.094238 -0.412074
0.436652 -0.014901 -0.007712
-0.154284 0.124505 -0.172566
0.343816 0.343761 0.292181
0.422928 0.295013 0.043207
0.419094 -0.045242 -0.016032
0.329099 -0.094487 0.010585
-0.284511 -0.292184 0.035466
-0.417281 -0.064601 -0.224708
0.376947 0.378427 -0.317005
-0.195397 -0.285055 0.002861
0.270481 0.120673 -0.294733
-0.005236 0.008727 -0.496744
-0.148561 -0.208061 -0.466454
0.054463 0.403062 0.187737
0.283522 0.075758 -0.216148
0.338603 0.388525 -0.159002
-0.112268 0.266880 0.107861
0.031189 0.449716 -0.053831
0.425811 0.097786 -0.110045
0.104416 -0.143206 -0.526557
0.459280 0.190606 0.233304
0.010593 -0.162914 0.098236
-0.133099 -0.045850 -0.492558
0.360566 0.056827 -0.166494
0.061851 0.376111 -0.192141
0.438052 0.093864 0.257099
0.359001 0.331679 0.050094
0.300070 0.371152 0.172846
0.430417 0.122780 0.404258
0.476477 0.129372 -0.028460
0.201806 0.458757 -0.168510
-0.159426 -0.242054 -0.276243
-0.169060 -0.136612 -0.487450
0.446337 0.133433 0.254467
0.133844 0.408441 0.248917
0.225952 0.393171 0.092647
0.202953 0.406276 0.079372
0.291528 0.169257 0.444503
-0.567375 -0.168679 -0.167615
0.459390 0.166525 0.359223
0.044960 0.350982 -0.092339
-0.280517 -0.130440 -0.253811
0.029213 0.359579 -0.130428
0.313286 0.153390 -0.196530
-0.460821 -0.165348 -0.211340
-0.094058 0.279183 -0.177884
0.324656 -0.054845 0.287724
0.275723 -0.142876 0.025407
0.210783 -0.085506 0.312727
0.376890 -0.099677 0.124910
0.166981 -0.183833 0.205626
-0.378080 -0.089598 -0.222263
0.094620 0.098720 0.362301
0.133981 0.321699 -0.290262
0.223435 -0.167330 0.229102
0.220949 0.281227 -0.255690
0.211476 0.331432 -0.224822
0.234907 -0.131505 -0.069741
0.354073 -0.114500 0.143143
-0.125615 0.051927 -0.454899
-0.073637 -0.079772 -0.518750
0.430318 0.308493 0.206724
0.250043 -0.157208 0.230647
0.463139 0.189814 -0.069610
0.429159 0.272708 -0.185513
0.293419 -0.157100 0.150350
0.205022 0.345375 0.300520
0.198101 0.070751 0.372927
-0.248323 -0.164733 -0.282781
-0.191969 -0.216804 -0.092361
0.235050 0.397023 0.023846
-0.051398 -0.048962 -0.528422
0.203935 0.457491 -0.117594
0.338792 -0.126091 0.075791
0.490919 0.127320 0.008999
0.052961 0.489264 0.066505
-0.104839 0.217087 0.154148
0.412510 0.077363 0.389452
0.031131 0.324248 -0.049832
-0.093478 0.292205 -0.257243
0.237913 -0.090990 0.301287
0.353846 0.388309 -0.348896
0.017841 -0.131459 0.198281
0.128036 -0.059589 -0.394931
-0.072636 0.243168 -0.087736
0.424345 0.213359 0.396072
0.076702 0.426147 -0.128654
0.295029 -0.089163 0.279393
-0.010548 0.253509 -0.410041
-0.154026 0.074732 -0.322371
-0.018162 0.317187 -0.311691
-0.135371 -0.030391 -0.151865
-0.332650 -0.386950 0.024393
0.421682 0.150685 0.419800
0.370567 -0.104669 0.110272
0.063908 -0.190952 0.121667
-0.409410 -0.176023 -0.232233
-0.236185 -0.131288 -0.268833
-0.158782 0.038047 -0.170953
0.373753 0.332090 -0.061579
-0.069044 0.311699 -0.252353
0.023372 -0.110714 -0.202849
0.344352 -0.012444 -0.157870
0.463212 0.208813 0.260952
0.023086 -0.121696 -0.238671
-0.089507 0.224141 -0.384163
-0.327201 -0.317503 0.067437
0.213312 0.245490 -0.324994
-0.091738 -0.258018 -0.357232
0.288942 0.407814 -0.089255
-0.002500 0.397596 0.045075
0.505182 0.176932 0.032103
0.361911 0.093726 0.438576
-0.270541 -0.368660 -0.079028
-0.246904 -0.366387 -0.085834
0.042390 -0.181052 0.071100
0.437093 0.263193 0.311492
0.058310 0.381360 0.213003
0.336611 0.147926 0.455871
0.465270 0.309170 -0.185386
0.329156 0.360295 -0.087407
0.170869 -0.090051 -0.163504
0.229310 0.019107 -0.287918
-0.129026 0.180883 0.093003
0.011823 0.232317 0.270545
-0.101553 0.087511 0.044765
-0.021540 -0.093070 -0.093599
-0.112644 0.190409 0.143777
0.295281 0.176862 -0.246348
-0.250242 -0.315930 -0.159647
0.242877 0.379566 -0.275899
-0.068960 -0.228169 -0.483729
-0.052898 -0.262827 -0.393713
0.255757 0.378793 0.116647
0.076669 -0.198039 0.070072
0.459186 0.210298 0.231161
-0.288238 -0.112373 -0.251215
-0.009288 0.330334 0.192422
0.238474 -0.078156 -0.136549
0.009708 -0.161602 -0.271976
0.171719 -0.101480 0.303257
-0.095164 0.132304 0.065663
-0.131649 -0.194752 -0.183717
-0.261777 -0.253851 -0.127721
-0.210241 -0.261267 -0.239818
0.271113 0.031141 -0.201588
-0.015335 0.046011 0.258336
-0.089315 -0.009949 0.047422
0.027167 -0.105253 -0.221054
-0.336421 -0.121496 -0.319420
-0.117426 -0.010455 -0.496277
-0.285372 -0.144464 -0.356499
0.048959 0.051292 0.321620
0.370577 0.313964 -0.293612
0.288258 0.421686 -0.257201
0.107187 0.203195 -0.444210
0.195813 -0.062562 0.331946
0.498960 0.292251 -0.080329
0.254061 0.380013 -0.308714
0.201529 0.398897 0.147463
0.398250 -0.032535 0.217336
0.217157 0.005138 -0.298699
-0.272079 -0.280020 -0.123850
0.054728 0.525022 -0.014832
0.146532 0.064687 0.374982
-0.152248 -0.267094 -0.127127
-0.108997 -0.137969 -0.511146
0.163059 0.395148 -0.251249
0.018689 0.292848 -0.373487
-0.101286 0.161297 -0.400576
-0.290533 -0.296272 -0.045319
-0.279536 -0.193082 -0.327412
-0.398531 -0.057068 -0.253412
-0.094487 -0.223757 -0.480960
-0.218501 -0.289850 -0.060994
-0.001348 0.405956 0.093462
0.129909 0.370667 0.279539
-0.547334 -0.190772 -0.238214
-0.008593 -0.231487 -0.324667
-0.189111 -0.169226 -0.220093
-0.162296 0.114730 -0.238196
0.414300 -0.024132 0.188469
-0.510107 -0.178049 -0.216206
0.257831 0.094377 -0.316213
0.262200 0.417429 -0.145784
0.260352 0.069872 -0.287945
-0.547663 -0.188597 -0.225321
0.027381 0.510030 -0.069180
0.078639 0.155082 0.337914
0.139942 0.447554 -0.310393
0.273881 -0.126759 0.257032
0.045061 0.229375 0.302792
-0.158596 -0.270062 -0.058886
-0.157912 0.154196 -0.236760
-0.075778 0.229329 0.188738
-0.076288 0.306090 0.003074
0.085279 0.330714 0.294850
0.127229 -0.153912 -0.479079
-0.026689 -0.248543 -0.451519
-0.221381 -0.084151 -0.390506
-0.000888 -0.151029 0.124205
0.444953 0.055255 -0.075422
0.493918 0.146000 0.101300
-0.180760 -0.000044 -0.433076
0.139247 0.335523 0.315098
0.107723 -0.119623 -0.136224
0.342881 0.340511 0.066761
0.071346 0.014300 -0.449776
0.186033 -0.207087 0.056256
-0.227226 -0.216640 -0.116682
0.475222 0.078282 -0.011049
0.399325 -0.065210 -0.012186
0.417457 -0.003760 0.214182
0.348079 -0.073503 -0.080350
-0.049839 0.276740 -0.362467
0.117667 -0.201259 0.019197
-0.264135 -0.361187 -0.048750
0.475677 0.190362 0.195369
-0.145570 -0.260105 -0.147422
-0.053934 -0.032193 0.177531
-0.549736 -0.093783 -0.154522
-0.042912 0.094657 0.198413
0.074964 -0.153869 -0.342210
-0.064577 0.226242 0.199727
0.250419 -0.069744 -0.133458
-0.187110 -0.016048 -0.427613
0.260075 0.163973 0.394290
0.052835 -0.221484 -0.471249
-0.164105 0.004268 -0.445000
0.076756 -0.036941 -0.545044
0.446627 0.325847 -0.119161
0.068640 0.293109 0.291953
0.049120 -0.067432 -0.559951
-0.056504 0.308632 0.147606
-0.146821 0.127949 -0.330393
0.198267 0.089816 0.375319
-0.292173 -0.080370 -0.296682
-0.056743 0.353891 0.102356
0.284951 0.145846 0.439698
0.321090 0.040625 -0.174700
-0.163990 0.019510 -0.259208
0.462160 0.146696 0.350962
0.189909 0.314722 0.330988
-0.200628 -0.054635 -0.415935
-0.032736 -0.196472 -0.286782
-0.094194 -0.019289 -0.024657
-0.104635 -0.006712 -0.060140
0.019578 0.337113 -0.206804
0.439436 0.114077 0.385866
0.398561 -0.038011 -0.073305
-0.513696 -0.069825 -0.207604
0.253060 0.278587 -0.259551
-0.058933 0.081558 -0.446229
0.487245 0.303581 -0.079884
0.291990 0.274114 -0.256482
-0.259047 -0.163614 -0.366942
0.062688 -0.148324 -0.070300
-0.532931 -0.149447 -0.171983
0.472883 0.124325 -0.048424
-0.102342 0.039913 0.039330
-0.149596 0.062701 -0.399733
-0.096208 0.210842 -0.046633
-0.096691 0.216033 -0.095878
-0.488261 -0.156822 -0.306830
0.064853 0.420466 -0.068421
-0.081768 0.106572 0.094342
0.271000 -0.080176 -0.083918
0.120111 0.277364 -0.373496
-0.009644 -0.127680 -0.010568
0.203264 0.466416 -0.223729
-0.186624 -0.250708 -0.026196
0.259287 0.139525 -0.318499
0.290739 -0.116038 0.022349
0.258389 -0.164145 0.043566
0.435370 0.290338 0.238292
-0.058691 -0.088868 0.073115
0.470841 0.140755 0.205395
0.260554 0.377415 0.087783
0.429707 0.086202 0.367972
0.194738 0.039870 0.372777
0.040054 0.119838 -0.478201
0.058527 0.365831 -0.087456
-0.059795 -0.180577 -0.259303
-0.301850 -0.188604 -0.291383
0.344367 -0.089010 -0.036815
0.072754 -0.166218 -0.394903
0.242601 0.323565 0.304011
0.290053 0.406203 -0.150949
0.452269 0.055725 -0.064552
-0.295763 -0.301201 0.021709
0.119991 -0.023201 -0.454536
0.219035 0.251501 0.353083
0.242968 0.168562 -0.348508
-0.054082 -0.147242 -0.235539
0.293680 0.237675 0.428239
0.274320 -0.112446 0.271954
0.010804 0.332436 -0.188214
0.046829 0.015286 0.318236
0.469470 0.308653 -0.027897
0.227931 0.044209 -0.334055
0.277878 0.378805 -0.005346
0.118034 -0.104552 -0.180731
-0.149377 -0.018870 -0.473616
0.095078 -0.017194 -0.504814
0.272321 0.263063 0.399771
0.131922 0.059385 0.372306
0.095423 0.515019 -0.271674
0.410236 0.233485 -0.129154
-0.107943 -0.043208 -0.507104
0.361297 0.161487 0.450387
0.327693 0.360776 0.257189
0.454721 0.184649 0.246609
-0.149148 0.167600 -0.249217
-0.295823 -0.322158 -0.063088
0.207018 -0.144717 -0.074269
0.143062 0.399337 0.269339
0.031573 -0.168180 0.151881
0.146078 0.301933 0.328446
0.025464 0.352281 0.209496
-0.474899 -0.051489 -0.222979
0.288408 0.377700 -0.342694
-0.113123 0.099964 -0.399909
0.313235 0.408466 -0.222103
-0.007549 -0.080396 -0.539048
0.133914 0.232769 0.347801
0.058392 0.448966 0.098325
0.486240 0.208531 0.180204
0.015350 0.285090 0.244658
-0.352894 -0.177335 -0.247896
0.069843 -0.116271 -0.185248
-0.438242 -0.186991 -0.302742
0.329663 0.347120 0.061419
0.190246 0.417977 0.030898
0.462574 0.283058 0.186170
0.113373 -0.208776 0.063611
0.319478 0.408831 -0.327471
0.096146 -0.011525 0.342391
-0.569847 -0.192970 -0.255833
0.364667 0.384610 -0.312791
0.189262 0.469016 -0.162598
0.311478 -0.041038 0.307294
-0.044764 0.329253 0.143075
-0.034051 -0.176985 -0.270827
-0.107671 0.276030 0.005111
-0.075288 0.010498 -0.509123
0.359003 0.380862 -0.231252
0.335592 0.358579 0.245161
0.069544 -0.097735 -0.231872
-0.062045 0.148960 -0.442133
0.341146 0.051818 0.333636
0.222240 0.067118 -0.374373
-0.372074 -0.196219 -0.309697
0.194709 0.392752 0.280742
0.000179 -0.112490 -0.166702
-0.527871 -0.126192 -0.224890
0.494418 0.165259 0.094072
-0.159456 -0.073242 -0.228106
0.097008 0.460929 -0.273297
-0.118310 0.232180 -0.326872
0.440291 0.230397 -0.122002
-0.081693 -0.029409 0.035784
0.151077 0.261942 -0.372333
0.012898 0.057509 0.293865
-0.110440 0.260847 -0.199102
0.082224 0.471232 -0.124742
0.312533 -0.075421 0.280494
0.009946 -0.161928 0.079899
-0.160636 -0.249186 -0.065008
-0.093627 -0.210848 -0.498468
0.432854 -0.029442 0.084017
0.219649 -0.198852 0.099785
0.267026 0.060904 -0.235188
-0.103735 -0.244319 -0.425509
0.077629 0.085417 -0.466870
0.315591 0.141953 0.453471
-0.189728 -0.046359 -0.436469
0.053606 -0.117288 -0.184423
0.130344 0.449793 0.080100
-0.295337 -0.139990 -0.248889
0.112055 -0.069833 0.317282
-0.220192 -0.141841 -0.419453
0.385775 -0.070273 0.202984
-0.034952 0.307637 0.174105
-0.096162 0.009695 0.037200
0.449748 0.189773 -0.084447
0.252827 0.383854 0.136937
-0.550832 -0.160035 -0.273731
-0.205883 -0.287265 -0.011655
0.256979 0.188606 0.402094
0.075702 0.141016 0.336663
-0.020080 0.352855 0.157541
0.271931 0.305098 -0.262252
0.116879 -0.043528 -0.391071
0.409746 0.128369 0.425823
0.183591 -0.210026 0.071111
-0.191753 -0.154463 -0.472116
0.186711 -0.099785 0.304504
0.123968 -0.148236 -0.500329
-0.429344 -0.158820 -0.212061
-0.113446 0.266516 -0.240219
0.171080 0.470244 -0.110031
-0.142773 0.193264 -0.237036
0.166899 0.343463 0.311916
-0.227230 -0.298701 -0.195396
0.128703 -0.063373 0.324804
-0.058230 0.082903 0.147984
-0.127914 -0.010972 -0.488980
-0.556176 -0.177410 -0.186947
-0.264926 -0.263333 -0.059190
0.257915 0.432692 -0.200937
-0.139843 0.196913 -0.198996
0.115963 -0.125970 -0.126642
-0.420602 -0.122375 -0.203287
0.299014 0.335122 -0.331559
0.429408 0.317124 0.131723
0.061163 -0.191551 0.073106
0.111275 -0.033736 0.335969
-0.093590 0.256424 -0.017580
0.387940 -0.086852 0.137497
-0.006616 0.288518 -0.373033
0.089073 -0.198312 0.127059
0.259013 0.026157 0.356534
0.263194 0.358607 0.274735
0.263938 0.164238 -0.293992
-0.292013 -0.359698 0.000543
-0.183847 -0.204536 -0.405570
-0.136069 0.044496 -0.097675
0.330000 0.348714 0.031222
0.399296 0.303111 0.311426
-0.053463 -0.111166 -0.206509
0.246458 0.401957 -0.061753
0.013185 0.004262 0.277161
0.247000 0.069167 -0.321825
0.226066 0.453592 -0.214670
0.056502 0.365303 0.230379
0.179416 0.428745 -0.019335
-0.176501 -0.213198 -0.332092
-0.102500 0.269953 0.120422
-0.001438 0.037414 0.273843
0.351426 -0.092038 0.221783
0.089938 0.223046 0.331561
0.198736 0.466915 -0.204036
0.468232 0.218056 0.294768
-0.451521 -0.184262 -0.301389
0.128653 0.248259 -0.402012
-0.090480 0.266663 -0.333443
0.404979 0.033120 -0.126540
-0.131946 0.183258 -0.339028
0.250246 0.050872 -0.273424
-0.165477 0.097066 -0.231544
-0.036129 0.058404 -0.459600
0.380405 0.072237 0.341868
-0.093090 0.058781 0.068988
0.119959 -0.211875 0.094801
0.137100 0.469939 0.141393
-0.493592 -0.133757 -0.182503
-0.289027 -0.332776 0.045477
0.141449 0.433524 0.233855
-0.080583 0.133128 0.187165
-0.314114 -0.324210 0.006979
0.024705 0.496521 -0.061642
-0.048092 -0.075667 -0.067751
0.115949 0.369473 0.272359
0.169586 -0.057477 -0.235458
0.148107 -0.004675 -0.381653
0.041896 0.026813 0.314355
-0.036010 -0.262060 -0.407295
-0.006101 0.057142 -0.461099
-0.056016 -0.070811 -0.096942
0.494320 0.109317 0.014614
0.023443 -0.145260 -0.541442
-0.060157 -0.094558 -0.186855
-0.379954 -0.147072 -0.334064
0.336901 0.370998 0.131976
0.249669 -0.136769 0.258099
-0.205019 -0.041826 -0.398087
-0.611773 -0.175009 -0.175881
0.035500 0.003535 -0.500014
0.022533 -0.169923 0.078030
0.160723 0.104603 0.371796
0.048136 -0.141769 -0.542231
-0.087190 0.299373 0.002887
0.455876 0.247353 0.257345
0.267989 -0.143358 -0.004926
-0.070819 -0.004567 0.151007
0.324319 0.370869 -0.107762
-0.059957 0.323338 0.009756
-0.165038 0.062383 -0.200171
-0.207557 -0.301883 -0.126128
0.496203 0.271124 -0.048443
0.296347 -0.002573 0.332432
0.146979 0.033840 -0.419412
0.470652 0.232032 -0.028808
0.495941 0.298248 -0.117481
-0.010991 -0.052929 -0.535720
-0.325127 -0.319620 0.053703
0.226647 -0.126317 -0.083605
0.199828 0.296888 0.334101
-0.000007 0.315028 -0.090701
0.332370 0.343246 0.301324
0.071922 0.412870 -0.131193
0.407661 0.021138 -0.112395
0.149511 0.196220 0.360619
-0.494034 -0.088108 -0.181845
0.407034 0.270362 0.352462
0.488363 0.252649 -0.039171
0.120261 -0.099209 0.299586
0.433012 -0.036164 0.019374
-0.592571 -0.149315 -0.183870
0.134068 -0.130505 -0.489814
0.204844 -0.102495 0.300065
0.279586 -0.144277 0.220683
-0.240344 -0.230276 -0.178825
-0.053065 -0.085112 -0.123347
-0.117782 0.197844 0.130669
-0.056296 0.172377 0.228277
0.081938 0.011889 0.340304
-0.326400 -0.331558 0.081300
0.415113 0.080884 0.340167
-0.427892 -0.137982 -0.307730
0.121466 0.344246 -0.233645
0.311182 0.397517 -0.166972
0.373450 0.091345 0.433662
0.008881 0.299063 -0.357375
0.464231 0.163651 0.345526
0.047669 0.420723 -0.028146
-0.557838 -0.161302 -0.258580
-0.063188 0.346405 0.051085
0.131274 0.064716 -0.441780
-0.558971 -0.090232 -0.168556
0.154572 0.139181 0.364078
0.122189 -0.072284 -0.502597
-0.081404 -0.062126 -0.110075
-0.458549 -0.107305 -0.192436
0.451074 0.068879 0.190479
0.120308 0.429928 -0.285183
0.113950 -0.132507 -0.387956
0.008444 0.330584 -0.283844
-0.036513 0.034666 -0.485217
0.106997 -0.113495 -0.337774
0.123477 0.505610 -0.197996
0.489826 0.275111 0.159175
0.045803 0.532838 -0.052361
0.003583 0.094543 0.279647
-0.127243 0.155447 -0.103283
-0.030713 0.331271 0.163119
0.391137 0.318693 -0.016686
0.369105 0.379078 -0.342751
0.058559 0.155763 0.326490
0.385992 -0.075077 0.187716
-0.134356 0.206347 0.030936
0.190771 0.318138 -0.223812
0.020764 0.340730 -0.234596
0.333212 0.229971 0.436816
-0.386995 -0.071043 -0.285774
-0.029159 0.159242 -0.454107
0.163960 0.249838 -0.378157
0.076794 -0.126825 -0.541458
-0.012068 0.371227 0.140141
-0.392763 -0.158146 -0.219649
0.126109 0.123464 -0.455734
0.029588 0.373535 0.186303
-0.096211 0.312035 0.032726
0.183214 0.477986 -0.298795
-0.100883 -0.030818 -0.091200
0.013522 -0.110338 -0.124869
-0.207497 -0.142755 -0.440804
-0.029850 -0.012762 0.222111
0.007246 0.130667 0.288320
0.037392 -0.171761 0.033191
-0.303469 -0.089588 -0.314728
0.173760 0.445893 0.196085
-0.154800 -0.108795 -0.477554
-0.172931 -0.202032 -0.441672
-0.377106 -0.079981 -0.295138
-0.277549 -0.316276 -0.115360
0.079501 0.510598 0.010138
0.205685 -0.092270 -0.144907
0.424934 0.117776 -0.112327
0.334379 0.230400 -0.190576
0.409871 0.160510 -0.117883
0.018972 -0.046048 0.269450
0.486092 0.175972 -0.036856
0.322518 0.072949 0.385493
0.069791 -0.014206 -0.527848
-0.296909 -0.371794 -0.047182
0.386790 0.328519 -0.300245
-0.195107 -0.078246 -0.261626
0.178162 0.461090 -0.102093
-0.337646 -0.195264 -0.319438
-0.143684 -0.233769 -0.347736
0.302888 0.284617 -0.257771
0.373875 0.311414 0.329195
0.015688 0.462606 0.005418
-0.046553 0.315641 -0.279574
-0.056522 0.317572 -0.212173
0.240537 0.448392 -0.271054
-0.070735 0.182822 0.203586
-0.105389 0.133466 0.012946
-0.354164 -0.121498 -0.223855
-0.377319 -0.125945 -0.215687
0.312321 0.302906 -0.278277
-0.039708 -0.093873 -0.020060
0.214913 -0.043971 0.340663
0.158546 0.292376 -0.329672
-0.046578 -0.083851 0.116479
-0.023858 -0.269076 -0.368902
-0.253739 -0.248785 -0.074720
0.063100 -0.125060 -0.272370
-0.198102 -0.284327 -0.022069
0.349900 0.283210 -0.222497
0.322400 0.193390 -0.217127
0.086632 -0.186160 -0.007159
0.037467 0.347831 0.220576
-0.027922 0.078497 0.214779
0.097901 -0.135577 -0.358365
0.196625 0.004837 -0.320833
0.261013 -0.175164 0.176887
0.394095 0.207084 0.425695
0.115904 -0.169701 -0.485175
0.004953 0.250122 -0.418988
0.109478 0.466180 -0.296315
0.339633 0.393374 -0.260086
0.479836 0.304791 -0.037826
-0.037635 0.342973 0.143505
0.312664 0.116271 -0.157750
0.140765 0.418202 0.244254
0.325692 0.394896 -0.145112
0.061902 0.414173 0.175208
0.127419 -0.086471 -0.221291
0.178546 -0.205540 0.043658
0.141178 0.498841 -0.237574
0.285660 0.052735 -0.178343
0.470569 0.235574 -0.052383
0.285849 -0.047149 -0.119901
0.179158 0.221503 -0.394439
-0.160287 0.053155 -0.260442
-0.075695 -0.042835 0.053542
0.212576 0.294099 0.332290
-0.018375 0.320336 -0.293228
0.361280 -0.023328 0.278154
0.016543 -0.163178 0.058184
-0.010612 -0.007514 0.241704
0.216311 0.231101 -0.341409
0.055311 0.518341 0.033345
0.236052 0.358151 0.278984
0.512119 0.238255 0.134405
0.119881 0.059141 -0.444262
0.492227 0.120340 0.124366
0.324003 -0.135040 0.130115
0.362172 0.332510 0.301704
0.145754 -0.208489 0.131309
0.142466 0.383447 0.282598
-0.177257 -0.229909 -0.072412
0.514917 0.270647 0.063110
0.137395 0.219172 0.352233
-0.056178 0.338459 0.026183
-0.411310 -0.151589 -0.211722
-0.136701 -0.115543 -0.222131
0.252658 0.429517 -0.112233
0.082002 0.382283 0.232809
0.356332 -0.105824 0.181327
0.038585 -0.116863 -0.141949
-0.103971 0.162077 -0.007618
0.465990 0.028865 0.064951
0.204792 0.445402 -0.301409
0.040667 0.368068 -0.120277
-0.010191 0.313143 0.206932
-0.168260 -0.204206 -0.124931
0.383880 -0.012533 0.260450
0.219724 0.398230 0.192734
0.252847 -0.147095 -0.023372
-0.543360 -0.143078 -0.229847
0.284969 0.086570 -0.192997
-0.255850 -0.283059 -0.171942
0.105154 0.480606 0.035104
0.369116 -0.085746 0.205084
-0.326145 -0.331723 0.028786
-0.135353 -0.185551 -0.506841
0.095627 -0.130146 -0.115417
0.399354 0.325393 0.224993
-0.305013 -0.094525 -0.251205
0.293847 0.053688 0.353876
-0.264158 -0.254750 -0.088411
-0.068009 -0.136308 -0.514776
0.097896 0.162308 0.348241
0.235687 0.181652 0.370533
-0.106166 -0.196320 -0.237141
-0.167383 -0.272745 -0.182286
0.296236 -0.152522 0.183456
0.320356 0.402696 -0.189074
-0.576841 -0.112684 -0.151648
-0.182665 -0.279699 -0.041464
-0.121204 0.167157 0.048726
-0.144968 -0.212944 -0.142373
-0.303997 -0.155029 -0.249326
0.180879 0.147982 -0.424671
0.341528 0.397110 -0.320621
-0.136042 0.208929 0.086359
-0.018028 -0.131696 0.127202
0.220644 0.033066 -0.319447
0.369735 0.340886 -0.129781
0.185892 -0.198429 0.176744
-0.113310 0.171397 -0.061187
-0.515379 -0.107666 -0.221462
0.073185 0.385772 -0.082800
0.114346 -0.147857 0.248226
-0.278771 -0.278513 -0.083681
-0.041670 0.046717 0.190807
0.051716 -0.181213 -0.390277
0.365666 0.075280 0.327881
0.415212 0.325174 0.123279
-0.081424 -0.028575 0.060494
0.448413 -0.006009 0.109687
0.290047 0.100164 -0.194839
0.223996 0.403062 0.018348
-0.169490 -0.274416 -0.090862
-0.179163 -0.264261 -0.011127
0.404639 0.347707 -0.254044
0.205336 -0.200714 0.161286
-0.236651 -0.326207 -0.155918
0.037984 0.503556 0.035500
0.099901 0.275400 0.320847
0.395991 -0.078535 0.122946
0.065428 0.301657 -0.358976
0.246062 -0.127884 -0.064606
0.249798 0.411483 -0.296014
0.256481 0.078703 -0.307661
0.289047 0.160649 -0.256906
-0.284866 -0.326048 -0.094237
0.456438 0.029716 -0.024609
0.093375 -0.191803 -0.457510
0.146521 0.412360 0.257233
-0.118169 0.201936 -0.129689
-0.213734 -0.190949 -0.325046
-0.267870 -0.139735 -0.361819
0.001753 0.335095 -0.231795
0.276000 0.137941 -0.274049
0.476847 0.124132 0.174246
0.146228 -0.207340 0.039985
-0.079237 -0.178543 -0.519411
-0.228000 -0.272668 0.037094
0.292646 0.389892 0.132633
0.259252 -0.034978 0.333024
0.160289 0.023548 -0.399292
0.330841 0.114261 -0.152367
-0.195457 -0.006946 -0.410436
-0.153148 0.141417 -0.182290
0.463177 0.298589 0.146001
-0.160799 0.036089 -0.217972
0.188227 -0.209553 0.106953
0.118171 0.480399 0.068099
0.036870 0.419787 -0.001181
-0.145940 -0.223042 -0.433509
0.114569 -0.032496 -0.376446
0.485604 0.303493 -0.055448
0.024182 0.123868 0.305197
0.066098 0.393902 -0.025337
-0.096451 -0.250411 -0.410574
-0.221470 -0.259461 -0.000514
-0.071923 0.295180 -0.009520
0.035947 -0.023921 -0.542777
0.158297 -0.060059 -0.258613
0.258219 -0.019224 0.340441
0.087395 -0.087110 -0.276707
-0.058146 0.297069 -0.018233
0.460297 0.061200 0.133652
0.214899 -0.029164 0.348563
-0.103021 -0.119516 -0.505387
-0.121374 -0.217578 -0.214454
0.297180 0.350449 -0.341286
-0.124040 0.233408 0.010457
0.444830 0.174645 -0.090175
0.103070 -0.173701 0.204780
-0.542980 -0.180988 -0.280050
0.438312 0.153371 -0.098526
-0.091426 -0.032329 -0.069510
-0.001987 -0.205104 -0.512251
0.251032 0.419831 -0.079352
0.311919 0.312993 0.359610
0.197889 0.377478 0.286195
0.018898 -0.227974 -0.364061
0.479824 0.301273 0.009736
-0.085133 0.116626 0.077835
0.074663 0.154613 -0.468435
0.019915 -0.154318 0.166730
0.095948 -0.099786 -0.304077
0.472364 0.256248 0.195345
0.400474 0.336538 -0.218369
-0.065831 -0.031807 0.141749
-0.107297 0.276227 -0.246599
0.331147 0.168114 0.455187
-0.093578 0.097937 0.061521
-0.164700 0.104477 -0.215373
0.275835 0.372042 0.069712
-0.303898 -0.314949 -0.014112
0.170811 0.442653 0.234795
-0.203269 -0.088836 -0.268871
0.440458 0.218411 -0.088833
-0.500646 -0.163573 -0.198770
0.117719 -0.056087 -0.312289
-0.063879 -0.262244 -0.317698
0.273408 0.421157 -0.193138
0.098887 -0.147644 0.242555
-0.123362 0.116227 -0.057407
-0.057496 -0.045458 0.155784
-0.426259 -0.102357 -0.268550
-0.319128 -0.193657 -0.291480
-0.176686 -0.293701 -0.182487
0.079649 0.460067 -0.144975
-0.160765 0.038461 -0.234120
0.083037 0.398121 0.216482
0.396548 0.244679 -0.153424
0.081668 -0.075355 -0.551199
-0.287080 -0.298250 -0.075859
-0.019060 -0.126936 0.015951
0.418143 0.341912 -0.145410
0.328064 0.218735 -0.214543
0.078434 -0.089095 -0.266397
-0.133525 -0.239026 -0.287000
-0.159359 -0.128228 -0.489254
-0.011543 0.393271 0.054655
-0.068020 -0.028815 -0.524292
-0.135562 0.018217 -0.469774
0.320766 0.403312 -0.204260
-0.193953 -0.167305 -0.254569
0.100631 0.335828 -0.256222
-0.065960 -0.108139 -0.511425
0.412613 0.320021 0.212084
-0.161446 -0.193513 -0.477316
0.299630 0.400891 -0.161945
0.310750 0.367354 -0.056796
0.459840 0.037507 -0.001614
0.229200 0.028727 -0.301731
0.472721 0.053869 0.076466
0.319058 -0.035675 -0.144380
0.489302 0.115169 -0.008739
0.335570 -0.035912 -0.142819
0.097985 0.495381 0.087043
0.035119 0.329961 -0.307243
-0.138966 0.229861 0.044386
-0.121439 0.189505 -0.121908
0.071044 -0.056085 -0.554353
0.292891 0.134926 -0.238028
-0.029069 0.006108 0.219546
0.254420 0.143999 0.373849
0.207791 -0.162227 -0.044585
-0.213558 -0.033761 -0.338662
0.491208 0.210021 0.085979
0.392883 0.032510 -0.146671
-0.042635 0.102168 0.214613
-0.174449 -0.222842 -0.088004
0.026263 0.269713 -0.399256
-0.145816 -0.175938 -0.184720
0.265960 0.135540 -0.303495
0.098228 0.377670 0.256159
-0.062663 -0.044292 0.112635
0.474027 0.171569 0.314285
0.422284 0.108317 0.407855
0.144838 -0.189734 0.191468
-0.147186 -0.039440 -0.481991
0.117624 0.463603 0.169177
-0.256513 -0.360715 -0.060815
-0.229512 -0.235493 -0.065753
-0.276803 -0.156638 -0.263059
-0.154085 0.106854 -0.153609
0.257875 0.434709 -0.308159
-0.165820 -0.220503 -0.322646
-0.173982 -0.213532 -0.105054
0.369418 0.326670 0.073498
-0.089236 0.241177 -0.112272
0.021173 0.339958 0.215482
-0.129553 -0.235842 -0.413373
0.484112 0.132887 0.150063
-0.276341 -0.280255 -0.106330
0.026007 -0.184175 -0.333297
0.373861 -0.087581 0.032466
0.076638 0.407467 -0.077610
-0.176540 0.024570 -0.290384
0.395830 0.336641 0.125597
0.327513 -0.107025 0.227093
0.457321 0.162499 -0.076137
-0.067355 -0.211587 -0.275399
-0.030116 0.056893 0.204658
0.418731 -0.026355 -0.046057
0.173055 0.022571 -0.384330
0.419167 0.229383 -0.118592
0.278371 0.204590 -0.259261
0.324217 0.400337 -0.217006
0.274126 0.219596 -0.259880
0.174045 0.065535 -0.419758
-0.159751 -0.269844 -0.116565
0.191842 0.472445 -0.232539
0.449037 0.253519 0.300290
-0.292500 -0.329017 -0.074208
0.110470 -0.093511 -0.519631
0.083549 0.303580 -0.354720
-0.070294 0.141778 0.212859
0.490654 0.127475 0.089478
-0.321395 -0.334212 0.011670
-0.091586 0.039681 0.091012
-0.160613 -0.219722 -0.410663
-0.080050 -0.027635 -0.520482
0.049950 0.403006 -0.010169
0.013139 -0.249190 -0.413053
0.142309 0.094398 0.374106
-0.184288 -0.192828 -0.138826
0.187375 -0.089888 0.313002
0.195384 0.371925 -0.227249
-0.063065 -0.077349 0.079655
0.157906 0.448384 0.139381
-0.051541 0.060773 0.168955
0.180041 -0.050204 -0.250795
-0.033395 -0.120460 0.077700
0.232174 0.373205 -0.241278
0.225401 -0.180102 0.019261
0.441458 0.067212 0.229788
0.278486 0.395428 0.151198
-0.062949 -0.056145 -0.525904
0.406247 -0.015273 0.220430
-0.069994 -0.056985 -0.083142
0.283979 0.093064 -0.223823
0.280429 0.420860 -0.210108
-0.032686 -0.167400 -0.261318
0.463059 0.287235 -0.181821
0.213832 -0.139841 0.263129
0.242291 -0.092300 -0.107155
0.109619 -0.156060 -0.517427
0.398594 0.090081 -0.135683
0.223305 0.457509 -0.266964
0.208668 0.427524 -0.072587
0.410751 -0.060322 0.073547
0.190785 -0.195715 0.025538
-0.031227 0.190916 -0.445320
0.222662 0.020278 0.364139
0.448548 -0.014330 0.086887
-0.158377 0.133498 -0.248569
0.190957 0.165892 -0.412782
0.056778 0.438544 0.107779
-0.029656 -0.245159 -0.316460
0.459728 0.159364 0.279940
0.216527 -0.171505 -0.020599
0.327442 0.072125 0.373456
-0.326214 -0.390684 0.007557
0.149222 0.488684 -0.317570
0.294820 0.384668 0.202604
-0.018852 0.005573 -0.506881
0.031841 -0.151260 -0.029700
-0.298290 -0.194890 -0.323371
0.054578 -0.022295 -0.541709
0.315620 0.287550 0.384470
0.039913 -0.141496 -0.065334
0.230318 0.447725 -0.290058
0.026767 0.252984 -0.414918
-0.122986 0.163893 -0.093576
-0.206595 -0.076151 -0.409063
0.235712 -0.038186 -0.192942
-0.264417 -0.270137 -0.033037
0.283032 0.105447 0.382145
0.158459 -0.096408 -0.162862
-0.188919 -0.206230 -0.373420
0.414485 0.302659 0.013050
-0.028604 0.047531 -0.465060
-0.109768 0.094310 0.023187
0.382676 0.226315 -0.123551
0.480383 0.071300 0.027177
0.167507 0.425045 0.063482
0.269048 0.381083 0.014184
0.048418 -0.090894 0.270721
0.346853 0.055324 -0.169862
0.026991 0.303599 0.249522
-0.409122 -0.198344 -0.284648
0.368635 0.341188 0.181491
0.263467 0.045444 -0.230029
0.423976 0.317464 0.170558
0.160691 -0.112128 -0.458166
0.403174 0.086313 0.291071
0.188452 0.473530 -0.216842
-0.148349 -0.247817 -0.120695
-0.305393 -0.326129 -0.033321
0.355998 0.312723 -0.309801
0.300550 0.363928 0.029852
0.268341 -0.154045 0.058509
-0.046707 -0.240734 -0.468335
0.294765 0.310371 0.359626
0.490756 0.263481 -0.076490
0.467664 0.217651 0.272187
0.421299 0.285118 0.303131
0.488490 0.119276 0.079262
0.217067 -0.042933 -0.200441
-0.111357 -0.189878 -0.510853
0.138664 -0.146358 0.255822
-0.174677 -0.215545 -0.354062
0.387139 0.370973 -0.302550
0.029354 -0.129552 -0.078050
0.034723 0.341770 -0.094090
0.191031 -0.205928 0.122698
0.328943 0.391118 -0.132086
0.025933 -0.103869 0.240736
0.479851 0.235280 0.004650
-0.179848 -0.278556 -0.056662
-0.077174 -0.085262 -0.184449
0.365078 -0.103701 0.149904
-0.053940 0.259114 -0.085830
0.133076 -0.000559 -0.396939
0.078583 0.471803 -0.218926
-0.558664 -0.117177 -0.149006
-0.069812 -0.054922 -0.061494
0.135070 0.498471 -0.186170
-0.270477 -0.143897 -0.260175
0.428031 0.115325 0.276022
0.388131 0.320505 -0.234200
-0.239375 -0.341262 -0.132483
0.328451 0.398596 -0.254219
-0.227210 -0.253577 -0.021147
0.432999 -0.006696 -0.034969
-0.127992 0.178889 0.043986
0.241105 0.446194 -0.220227
0.339274 0.247885 -0.189324
0.077165 0.365299 -0.047570
-0.171734 -0.266260 -0.145348
0.086549 0.504804 -0.030426
0.122308 0.450636 0.037166
0.385083 0.322411 -0.261308
0.029752 0.352708 -0.179498
0.471770 0.111701 0.181557
0.422852 -0.038404 0.084909
0.482309 0.240443 -0.012390
-0.114513 0.156297 0.057622
0.136372 0.251339 0.342449
-0.048200 0.346735 0.129895
0.146469 -0.196162 -0.004839
0.112561 -0.096620 -0.353088
-0.260891 -0.315608 0.020269
0.321704 0.353967 0.073671
-0.123071 -0.244342 -0.359619
-0.133696 0.246790 0.073080
0.424429 0.013677 0.211749
0.459060 0.017498 0.013557
0.152166 -0.021668 0.352484
0.294801 0.213449 0.440139
0.171559 0.481928 -0.222377
-0.362477 -0.133520 -0.221876
-0.151158 0.007812 -0.157813
0.354397 0.137193 -0.139652
-0.427886 -0.118794 -0.276830
0.085492 0.312028 -0.344339
0.119549 -0.088635 0.307250
0.498706 0.292888 -0.036578
0.070466 0.377556 -0.033859
0.371115 -0.032722 -0.126160
-0.092022 0.251950 -0.129770
0.058838 0.011200 -0.457531
-0.233836 -0.224641 -0.194313
-0.001142 -0.254208 -0.425403
-0.534765 -0.187661 -0.233698
0.084526 0.269511 -0.400885
0.143289 0.435834 0.091482
0.123506 0.378225 -0.231105
0.425374 -0.048622 0.038371
0.349039 0.349292 -0.095399
-0.041782 -0.265185 -0.324211
0.083617 -0.201507 -0.462609
-0.091252 0.292048 -0.224692
-0.155773 0.093577 -0.306908
0.069416 -0.212198 -0.443145
0.284824 0.408668 -0.126641
0.366854 0.332767 -0.019931
-0.175302 -0.161770 -0.493313
0.344487 -0.082065 -0.059191
0.151598 0.486175 -0.147625
0.505150 0.168579 0.046706
0.177278 -0.008864 -0.343208
0.214787 0.321417 0.318193
0.204699 0.413870 0.006741
-0.111722 0.157675 0.040621
0.390808 0.365344 -0.250965
0.485385 0.249941 -0.055359
0.023333 -0.150402 -0.265768
-0.205855 -0.223744 -0.260491
-0.225247 -0.211860 -0.202260
-0.078006 -0.008487 0.087092
0.435173 0.012922 0.181368
-0.280762 -0.338951 0.008508
0.218273 0.384797 -0.242119
-0.106914 0.218778 -0.363532
0.185556 -0.176421 -0.036684
0.300115 0.377692 -0.089133
0.097243 0.495231 -0.051017
0.457325 0.297537 -0.188984
0.166049 0.074093 -0.430158
-0.277007 -0.104678 -0.257250
0.141913 -0.213533 0.102293
-0.145308 0.061274 -0.132835
0.021154 -0.115527 -0.145563
0.171365 0.130203 0.369440
-0.516552 -0.091827 -0.213217
0.495288 0.262169 -0.019877
0.458067 0.151493 0.366543
0.003319 0.298712 0.226507
0.470552 0.175100 -0.058208
0.086369 0.019430 -0.442746
-0.230194 -0.116140 -0.270673
0.274846 0.133559 0.421030
0.209064 -0.130792 0.273363
0.401835 -0.002770 0.238034
0.141521 0.438859 0.053646
-0.483437 -0.152736 -0.194068
0.046761 -0.181048 -0.525548
0.193261 -0.037572 -0.252294
-0.112735 0.059663 0.013090
0.119271 0.200432 0.346556
0.321040 -0.124481 0.197989
0.457275 0.216928 0.248482
0.251218 0.154963 -0.340545
0.004091 -0.112537 -0.180930
-0.458464 -0.082428 -0.199099
-0.106602 0.134479 -0.403525
0.409973 -0.054316 -0.012528
0.115743 -0.191929 0.171800
0.295057 0.191141 -0.247884
0.409364 0.321927 -0.205541
-0.020541 0.008577 0.229168
-0.125758 0.087639 -0.056570
0.080409 -0.099536 -0.545604
0.515042 0.244403 0.112282
0.355953 0.356106 0.140119
0.096712 -0.014536 -0.492249
0.289460 -0.038105 0.320118
-0.127891 0.250336 0.019813
0.211970 -0.003644 0.359914
0.248303 -0.073066 0.312719
0.199351 -0.026927 -0.266880
0.483881 0.202233 -0.016724
0.489729 0.144953 0.141376
0.131195 -0.076338 -0.242927
0.077869 0.422189 -0.176186
0.116134 0.509663 -0.210270
-0.161523 0.133337 -0.217860
-0.007473 0.074903 0.266064
-0.115412 0.188246 -0.086859
-0.221972 -0.323046 -0.163677
0.239428 0.391915 0.050677
0.154640 -0.214537 0.102129
0.110698 -0.184136 0.187202
-0.176771 -0.278070 -0.013948
-0.167992 -0.279498 -0.207001
0.451034 0.076969 0.213935
0.240586 0.395787 0.009317
0.215881 -0.190655 0.042034
0.501606 0.251340 0.161278
0.277788 0.082378 -0.231628
-0.389986 -0.135463 -0.317033
0.300207 -0.080161 -0.054607
0.116324 0.484220 0.096810
-0.172161 -0.270480 -0.107489
-0.158226 -0.256492 -0.186842
0.346120 0.388112 -0.242461
-0.137855 -0.246609 -0.245705
0.207703 0.157460 -0.398065
0.180719 0.429187 -0.039041
0.437327 0.222283 0.372194
0.323433 0.114528 0.448032
0.281274 0.346696 -0.327628
0.165169 0.427443 0.050633
0.372239 0.142108 0.448668
0.291458 0.232199 -0.253136
-0.178579 -0.041948 -0.251754
-0.119296 0.278505 0.083128
0.283890 0.013641 0.343024
0.244037 0.396483 -0.015888
0.021298 0.373264 -0.004992
-0.230289 -0.100828 -0.276126
0.040563 0.373814 0.195071
-0.128387 0.230452 -0.306421
0.417737 0.273422 0.331697
-0.014721 0.315521 -0.121104
0.203040 0.461758 -0.188926
0.085571 0.137118 0.347231
0.278062 0.374877 -0.334547
0.294982 0.383723 0.183413
-0.120025 -0.209153 -0.489154
-0.550753 -0.092205 -0.187269
-0.127914 0.268294 0.051276
-0.006223 -0.130351 0.163850
-0.094594 0.286903 -0.281076
0.210565 0.085706 -0.398131
-0.076307 -0.247908 -0.293537
-0.108384 0.044562 -0.475407
0.171235 0.385245 0.289937
-0.017282 0.313169 0.193382
0.260642 0.128795 0.375453
0.382550 0.348063 -0.148769
0.145471 -0.079360 -0.407274
0.328184 0.357583 0.230949
0.107012 0.338226 0.303111
0.141064 0.460930 0.188928
0.201390 0.176625 0.374350
0.457925 0.299462 0.159418
-0.022884 -0.101552 -0.136728
-0.061817 -0.157436 -0.522964
0.253083 0.415296 -0.125297
-0.387065 -0.067254 -0.237135
0.261285 0.076167 -0.255612
0.460116 0.011741 0.089800
0.086602 0.502801 0.071774
0.269220 0.159451 -0.282949
-0.227909 -0.249144 -0.033719
0.118489 -0.094242 -0.205391
0.372989 0.285313 0.368501
-0.109466 0.013528 -0.036852
-0.225875 -0.340116 -0.134696
-0.428526 -0.191440 -0.253439
0.180754 0.209202 -0.402946
-0.532267 -0.123575 -0.164154
0.483570 0.301188 -0.009494
-0.091710 0.088405 0.081522
0.105220 -0.130942 -0.374332
0.327620 0.355713 -0.031352
-0.035369 0.292763 -0.033561
0.046392 -0.174967 0.153677
0.138782 0.043019 -0.429595
0.305790 -0.147997 0.173335
0.088089 0.512868 -0.084627
-0.165649 -0.175348 -0.496153
0.445655 0.051080 0.160528
0.131024 -0.096141 -0.185105
0.148875 0.442267 0.116440
0.409410 0.302256 0.049568
0.221860 0.337867 -0.230494
-0.536463 -0.174415 -0.196070
-0.146428 0.179099 -0.171658
0.300258 0.155373 -0.232368
0.400897 0.305433 0.070746
0.167377 -0.213633 0.111820
0.111326 -0.042798 -0.359619
0.134791 0.470828 0.107770
0.218981 0.352672 -0.223672
0.200776 0.028669 -0.360510
0.286516 0.291899 0.376490
0.204962 -0.183826 -0.004301
0.339219 -0.098029 0.021732
0.270114 0.433007 -0.240516
0.368333 -0.068730 0.232089
0.223215 -0.193773 0.059052
-0.216550 -0.048460 -0.326587
-0.019211 -0.153676 -0.251725
0.475318 0.304351 -0.178010
0.499051 0.275079 0.145466
-0.482855 -0.146598 -0.300784
-0.282992 -0.186767 -0.342141
-0.576731 -0.130348 -0.143451
0.152445 0.454692 0.205522
0.179235 -0.045013 0.343222
0.264461 0.207358 -0.271041
0.116625 0.470369 0.155642
0.002502 -0.111085 -0.212408
-0.098113 -0.148193 -0.518893
0.441337 0.277487 0.261573
0.496068 0.295612 -0.057033
0.372686 0.328275 -0.006746
0.080656 0.081895 0.353462
0.098951 0.461970 0.144497
-0.166513 -0.074155 -0.462072
0.091907 0.287378 -0.371816
-0.090134 0.029212 0.078729
0.254767 0.193717 -0.305568
0.307428 0.383969 0.130256
-0.230295 -0.212462 -0.181582
-0.228724 -0.181881 -0.371072
-0.024709 -0.230320 -0.487031
0.045118 -0.131237 -0.088329
0.229952 0.317678 0.313316
0.478732 0.068315 0.075893
0.060359 -0.103877 -0.221526
0.017810 -0.242537 -0.450548
-0.050631 0.134428 -0.452373
-0.203093 -0.309239 -0.185542
0.496518 0.281426 -0.133870
0.192649 -0.108387 0.296092
0.304160 -0.143829 0.108639
-0.151373 0.052601 -0.420540
0.236740 0.402762 -0.276128
-0.203925 -0.254987 -0.249925
-0.132384 0.184382 -0.136900
-0.177995 -0.118427 -0.459714
0.057211 -0.168885 -0.353131
0.015359 0.339107 -0.260143
0.405706 0.128393 -0.124400
-0.401835 -0.140353 -0.323040
-0.074600 0.236440 -0.389837
0.480759 0.283559 -0.170877
0.196280 0.415796 -0.281214
-0.094211 0.283424 -0.205461
0.224884 0.238189 -0.315844
-0.053740 -0.145299 -0.522908
-0.031259 -0.209490 -0.508991
-0.139126 -0.243176 -0.213466
-0.046372 -0.267909 -0.367913
-0.094067 0.232299 0.165048
-0.063550 -0.078692 0.056531
0.140649 -0.100603 0.302519
-0.002941 0.384802 0.141024
0.013590 -0.030322 0.266905
0.095644 0.349852 0.279598
0.060447 -0.163661 -0.036704
0.078386 0.441884 -0.152277
-0.036550 0.267185 0.209838
-0.025365 -0.156997 -0.533886
-0.043915 0.279909 0.189030
-0.200677 -0.264750 0.012187
0.480765 0.094189 -0.022043
-0.084122 0.003218 0.071665
0.249478 0.053075 -0.257299
0.106166 -0.188912 -0.016314
0.239294 0.039164 -0.283036
0.191240 0.420072 0.008751
0.242601 0.139409 -0.353201
0.066919 0.038350 -0.452609
-0.030901 0.298164 -0.101226
0.140246 0.277507 -0.364189
-0.094598 0.208850 -0.390994
-0.084648 0.282296 -0.306723
-0.386930 -0.176021 -0.327772
0.131174 0.485507 -0.093025
-0.138128 -0.143535 -0.508152
-0.138052 0.002881 -0.121428
0.002191 -0.246771 -0.449141
-0.235454 -0.152840 -0.277477
0.207965 0.235641 0.360661
0.306386 0.139242 -0.204838
0.449265 0.264503 0.263613
0.409669 0.327420 0.150123
-0.212700 -0.071466 -0.395601
0.132644 0.481565 -0.314526
0.342331 0.387604 -0.194035
-0.154578 -0.157601 -0.505654
0.418749 0.296013 0.058815
-0.133899 -0.206725 -0.172909
-0.076694 0.249736 -0.110008
0.051343 -0.148100 -0.285616
-0.111996 0.049725 -0.009197
0.290761 -0.017430 -0.155760
-0.165134 -0.260386 -0.157535
0.200181 0.202473 -0.389648
0.355300 0.068158 -0.163006
-0.162458 -0.227419 -0.299084
0.327296 0.272291 0.404023
0.051791 -0.000953 0.319947
-0.548548 -0.130207 -0.157007
0.401438 0.005150 -0.113682
-0.485325 -0.187377 -0.282471
0.387783 0.322245 0.291230
0.460186 0.035529 0.125261
-0.349194 -0.195861 -0.284854
0.122231 0.482017 -0.081732
0.172859 0.321937 0.330124
-0.394481 -0.189319 -0.314417
0.007964 -0.061617 -0.545921
-0.101944 -0.018775 -0.079791
-0.138645 0.191478 -0.162063
-0.057193 0.065425 0.157417
0.187139 0.149335 0.374981
-0.091513 0.066416 0.085144
-0.186810 -0.012933 -0.277250
-0.082856 0.009450 0.096526
0.272549 0.039308 0.356618
-0.017852 0.196259 -0.449779
0.247212 -0.121986 0.273858
-0.502450 -0.102629 -0.176030
0.131137 0.233003 -0.414114
0.168285 -0.086270 0.316809
0.328754 0.240327 -0.225283
0.220845 0.402942 -0.265566
0.008460 -0.251280 -0.374799
0.269185 0.412357 -0.120202
-0.045340 0.296878 -0.343491
0.356705 0.284169 -0.208255
0.085999 0.455036 0.133762
-0.005052 -0.261310 -0.382687
0.333043 0.231257 -0.206113
0.419827 0.322442 0.140855
0.189041 0.281825 0.339755
0.382291 0.316235 0.312059
0.463705 0.234087 -0.095402
0.482467 0.265920 -0.152486
0.021203 0.422619 0.095632
-0.269568 -0.260689 -0.101531
-0.041219 -0.096754 -0.002782
-0.224755 -0.065328 -0.360389
0.093392 0.118108 0.359615
0.015298 -0.077685 0.253062
0.474289 0.239860 -0.078835
0.054451 0.348474 0.247022
0.276125 -0.152340 0.210581
0.460774 0.026606 0.084973
0.194279 0.328411 0.322543
-0.003924 -0.234506 -0.338670
0.459693 0.015459 0.037061
0.058360 0.384633 -0.176195
0.466067 0.079676 -0.038724
-0.423640 -0.072562 -0.216360
0.045214 0.253970 0.298046
-0.064742 -0.238460 -0.468049
-0.484226 -0.133525 -0.260795
0.005046 -0.236508 -0.474236
0.427467 0.085105 0.352564
0.449223 0.146374 0.384165
0.070976 0.239522 0.316712
0.436431 -0.020303 0.137391
0.207882 -0.160010 0.241534
0.019934 -0.199081 -0.515249
-0.146404 -0.234101 -0.130882
-0.607724 -0.169221 -0.164399
0.003718 0.323666 -0.298385
0.338385 0.099550 0.443926
0.371988 0.331719 -0.043367
0.024107 0.094027 -0.475715
-0.046298 -0.081309 -0.106480
-0.050998 -0.070295 0.124395
0.269266 -0.044494 0.324584
0.246184 0.406522 0.215811
0.069608 0.406437 -0.163468
-0.113643 -0.007801 -0.090874
-0.565181 -0.107985 -0.180922
0.408767 -0.062578 0.123761
0.021862 -0.052786 -0.551157
-0.106095 0.147709 0.135054
-0.003460 -0.103128 -0.114844
-0.081645 0.083122 -0.432827
-0.095779 0.042139 0.053347
0.504876 0.272990 0.009163
0.266795 0.102411 -0.262697
-0.250109 -0.260995 -0.180620
0.131131 -0.067248 -0.493891
0.331607 0.222256 -0.148638
0.229046 0.405593 -0.033634
0.345041 0.352576 0.180343
0.021886 -0.020803 0.281181
-0.097201 -0.021151 -0.065989
0.217955 0.409646 -0.023104
0.331899 0.078514 0.425445
0.296825 0.419502 -0.303835
0.489068 0.199503 0.125445
0.473154 0.186326 0.281432
0.477209 0.114510 0.163676
0.099649 -0.046042 -0.534391
0.394991 0.363876 -0.268589
0.202549 -0.195726 0.037920
-0.351750 -0.069996 -0.266365
-0.031851 0.328826 -0.218489
-0.058988 0.208466 -0.419272
-0.062117 -0.120536 -0.510226
-0.045004 -0.063540 -0.528971
0.272426 0.383371 -0.025408
-0.085221 0.301412 -0.246761
-0.112385 -0.162045 -0.227749
0.363013 -0.084512 0.218252
0.132459 -0.171649 0.218763
-0.491768 -0.144707 -0.283321
-0.168216 0.052637 -0.319787
0.110946 0.000781 -0.415683
0.176401 0.332666 0.322681
0.471700 0.301791 0.039757
0.108571 0.398715 -0.225983
0.267864 0.421675 -0.111463
0.128928 -0.147423 -0.094509
0.359690 -0.080121 -0.054384
0.457937 0.189743 0.357134
0.160719 -0.075995 -0.198647
-0.460143 -0.090690 -0.246877
-0.426299 -0.088146 -0.264468
0.367786 0.300899 -0.227901
0.308210 -0.083861 -0.040953
-0.013073 -0.189114 -0.525311
-0.084179 -0.027508 0.001237
0.087491 -0.162950 -0.059353
0.363978 0.000382 -0.159406
-0.460745 -0.189211 -0.288987
-0.050956 0.255005 0.200883
-0.240625 -0.188457 -0.351301
-0.040374 0.322318 -0.005887
-0.138915 0.206224 0.049203
-0.203024 -0.193991 -0.317596
0.327801 0.103108 -0.157613
-0.153632 0.007896 -0.195873
0.265930 0.096662 -0.284198
-0.196943 -0.030409 -0.282179
