0.097636 -0.110242 -0.531111
0.021989 0.520377 0.003011
-0.086140 -0.173093 -0.242299
0.467065 0.319163 -0.170264
0.084150 0.508075 -0.193002
0.106165 -0.163783 0.222281
0.114973 -0.059191 -0.521713
0.028735 0.361228 -0.138088
-0.029311 0.068130 0.216955
0.017571 -0.066332 -0.550946
0.244959 0.428755 -0.118878
-0.087020 -0.124224 -0.506893
-0.103024 0.180073 -0.031896
0.190605 0.222555 -0.382782
0.275035 0.310350 -0.264747
-0.117963 0.155119 -0.069186
0.455699 0.065452 -0.053030
-0.003122 -0.259178 -0.393386
0.136392 0.458893 -0.086271
0.072840 0.197734 0.330697
0.215983 0.321807 0.317456
0.490362 0.091236 0.018562
0.181383 0.474568 -0.181442
-0.000421 -0.248687 -0.350423
0.005462 -0.172299 -0.534196
0.501429 0.184384 0.065819
-0.103592 -0.239825 -0.281849
0.010970 0.481339 -0.012782
-0.129393 -0.036240 -0.146740
-0.039785 -0.071883 -0.529306
-0.038222 -0.090358 -0.043474
-0.044749 0.040608 0.187028
-0.502282 -0.067978 -0.184412
0.069775 -0.154783 -0.331131
-0.142405 -0.193651 -0.495656
0.273805 0.431655 -0.235923
0.056219 0.367566 0.222954
-0.337557 -0.341181 0.043097
0.070063 -0.002173 -0.496827
-0.175322 -0.283839 -0.211189
0.273765 0.130748 -0.288109
0.487790 0.126987 0.140480
0.086232 0.511563 -0.162830
0.285893 0.424745 -0.320230
0.462431 0.215340 0.224439
0.474577 0.265618 0.186521
0.372718 -0.091032 0.180163
-0.091555 0.034840 -0.489516
-0.056579 -0.130299 -0.223302
-0.015165 -0.137133 0.115034
0.259034 0.118858 -0.322605
0.458925 0.090967 -0.057783
-0.016159 0.187195 -0.454372
-0.015779 0.247728 -0.410266
-0.208860 -0.199992 -0.138567
-0.383223 -0.198129 -0.302405
-0.137893 -0.237164 -0.332149
0.494416 0.263370 0.164602
-0.082377 -0.005626 0.072954
-0.151571 -0.265667 -0.133696
0.102107 0.411307 -0.221349
-0.574192 -0.163649 -0.158944
0.065906 0.021958 -0.449737
0.102307 -0.184207 0.181982
0.323578 0.365672 0.160930
0.023741 -0.171710 0.097389
-0.168242 -0.053203 -0.465664
0.029241 -0.106659 -0.225531
0.250130 0.294248 0.331614
-0.089798 -0.247663 -0.431096
0.511816 0.271251 0.123102
-0.186759 -0.049181 -0.442499
0.421518 0.002438 -0.070647
0.084587 0.476351 -0.262641
-0.230066 -0.237854 -0.061171
-0.024036 -0.148226 -0.243532
0.149974 0.392056 -0.243941
0.175913 0.065643 -0.417487
0.359908 0.297385 -0.232922
0.192438 -0.096442 0.307087
0.345698 -0.093234 -0.010681
0.004612 0.011556 -0.487575
0.273974 0.089846 0.369516
0.414873 -0.052552 0.137661
0.108789 0.482014 0.123025
0.156281 0.363603 -0.229971
0.248278 0.439055 -0.295754
0.249223 0.347013 0.283344
-0.036843 0.084405 -0.458077
-0.013951 -0.134287 0.028768
0.229795 -0.001650 -0.234061
0.426178 0.024850 -0.088984
0.147906 -0.127076 0.277362
0.450141 0.202556 0.367241
0.016245 -0.157956 0.031998
0.165166 0.285243 0.336051
-0.119467 -0.241218 -0.409507
0.116043 0.267485 -0.387094
0.398766 0.095062 0.421769
0.283878 0.110671 0.413942
0.420072 -0.046496 0.062780
0.473240 0.303198 0.022558
-0.112309 0.050943 -0.017033
0.266217 -0.074233 -0.094767
-0.168519 -0.155604 -0.498278
-0.265128 -0.097871 -0.266000
0.451089 0.297205 0.025836
0.413311 0.179117 -0.116216
-0.131504 0.222473 -0.185524
0.037942 -0.136356 0.216275
0.416456 0.049514 -0.112322
-0.214289 -0.081785 -0.284504
-0.141130 -0.081327 -0.481233
0.203363 0.401729 0.115166
0.334238 0.341393 -0.345414
0.388770 0.370019 -0.283605
-0.194728 -0.153144 -0.466212
0.199700 0.030609 -0.364768
0.284263 0.406095 -0.133105
-0.052692 -0.075813 -0.042834
0.289754 -0.129278 0.234928
-0.166156 -0.269362 -0.231810
0.028107 -0.240637 -0.435951
0.139546 0.466742 0.166491
0.196567 -0.107597 0.296497
0.078852 0.472106 -0.234672
-0.305417 -0.317912 -0.016240
-0.411724 -0.175195 -0.320658
0.354480 0.345502 0.268806
-0.160683 0.043423 -0.270973
0.198477 0.416802 0.007943
0.274917 -0.145075 0.060122
-0.112271 -0.096001 -0.208279
-0.009045 0.321497 -0.296775
-0.060608 0.312525 -0.201383
0.081312 0.499548 -0.238994
-0.027838 0.338250 0.163139
0.272020 0.059966 -0.228897
0.212326 0.037337 -0.358926
0.404197 0.068438 0.375523
0.318290 0.405211 -0.211362
0.083634 0.426952 0.156702
-0.218645 -0.200480 -0.172185
-0.237742 -0.319879 -0.164262
0.184777 0.477155 -0.260313
-0.376224 -0.187212 -0.255454
-0.297697 -0.310743 -0.040649
0.077557 0.418369 -0.178963
0.470331 0.310546 -0.057897
0.423021 0.299132 -0.019407
-0.169972 -0.276767 -0.077682
-0.098319 -0.010969 -0.026627
0.104742 -0.081613 -0.535694
-0.008237 0.377453 0.139529
-0.164494 0.052036 -0.381336
0.173893 0.436438 0.169413
0.316350 0.365799 -0.070184
0.349508 -0.070299 -0.086773
-0.290700 -0.193979 -0.315214
0.187912 -0.117111 -0.122829
0.006581 -0.154176 0.046282
0.251646 0.168180 -0.331702
0.401019 -0.007708 -0.105258
-0.139722 -0.008842 -0.134138
-0.109532 -0.248053 -0.396052
0.028329 -0.170299 0.053969
-0.023744 0.350517 0.155421
-0.191673 -0.107724 -0.258191
-0.151736 -0.266029 -0.098236
0.391156 0.289862 0.341674
0.101635 -0.169142 -0.054954
0.177752 0.116428 -0.429027
0.362665 0.066845 0.410883
0.196633 0.400843 0.163954
0.201269 0.400975 0.129087
0.082414 0.283111 0.306972
0.208114 0.144492 0.376923
-0.072969 -0.050312 0.002530
-0.163397 -0.265574 -0.143768
0.232477 0.082949 -0.350222
0.139110 0.484585 -0.100869
0.019708 0.053771 0.300428
0.021132 0.323987 -0.314700
0.057867 -0.171263 0.175365
-0.115378 0.070838 0.005619
-0.069192 0.258386 -0.036064
-0.073304 -0.225367 -0.486491
0.491247 0.140241 -0.004445
-0.051070 0.103877 0.200866
0.267782 0.335530 0.301994
0.468255 0.131316 -0.065160
0.330638 0.076136 -0.165692
-0.218472 -0.062531 -0.309828
0.133787 -0.081807 -0.496659
0.352131 0.385811 -0.249608
0.382413 0.152228 0.443536
-0.085786 0.120989 0.146017
0.081729 0.506894 0.053856
0.110710 -0.065473 -0.366298
-0.223926 -0.204672 -0.183758
0.190429 0.474447 -0.288785
-0.203878 -0.189817 -0.170211
0.046898 -0.223379 -0.474502
0.073026 0.140719 -0.471422
0.332483 0.356812 0.172639
-0.545584 -0.078696 -0.176069
0.173853 0.483632 -0.278835
0.244178 0.424821 -0.148964
0.071391 0.415154 -0.071174
0.197132 0.229263 -0.368981
0.153048 -0.036066 -0.320046
0.124233 -0.032145 0.341523
0.138955 -0.206397 0.137094
0.120491 0.374872 -0.229717
-0.065991 -0.040674 0.102522
0.106238 -0.067945 -0.299529
0.180169 -0.048428 -0.229138
0.115564 -0.209435 0.064525
0.454766 0.181122 0.244991
0.227062 0.391271 0.106823
0.321668 -0.080390 -0.067959
0.316749 0.363967 -0.055487
0.451396 0.160111 0.380376
-0.366865 -0.146970 -0.222831
0.006532 0.120526 -0.474762
-0.190023 -0.297124 -0.201546
-0.310322 -0.359583 -0.030764
0.160177 0.119881 -0.442753
0.503877 0.171458 0.015023
0.248896 0.360446 0.275308
-0.244765 -0.305291 0.002505
0.159168 -0.083837 -0.462796
-0.252505 -0.315765 -0.031052
-0.583261 -0.147972 -0.147302
-0.093487 -0.015359 -0.009913
0.251548 0.335632 0.293047
0.402556 0.236984 -0.137755
-0.089903 0.145285 0.179261
0.344969 0.262124 -0.197750
0.168547 0.448772 0.171864
-0.102796 0.169557 -0.010999
-0.124310 0.265673 0.085828
0.191811 -0.023234 -0.280371
0.323729 0.400185 -0.241575
0.031994 -0.042123 0.285717
0.275835 0.413867 -0.161086
-0.108245 0.193421 -0.066842
0.172899 0.129813 -0.432891
0.399863 -0.055208 0.192131
0.307144 -0.079908 -0.060745
-0.053850 0.053183 0.166333
0.312436 0.057810 0.347898
0.471565 0.216877 0.210714
0.033720 -0.220907 -0.489493
-0.013159 -0.126667 -0.004151
0.114395 0.057851 -0.445951
-0.134670 0.214731 -0.174637
0.461160 0.294465 0.173528
-0.195817 -0.199475 -0.317468
0.194619 0.270376 -0.308903
0.440471 0.057838 0.215326
0.068119 -0.013095 -0.527215
-0.271027 -0.283762 0.010546
-0.214627 -0.138931 -0.428581
0.493698 0.145047 0.097220
0.218012 0.265015 -0.272960
-0.113612 0.153393 0.119675
0.036999 0.049888 -0.463024
0.445306 -0.006962 0.032977
0.112274 -0.183315 0.189968
0.009824 0.309017 -0.066001
0.151510 0.459603 0.173123
-0.082648 0.279184 -0.014685
0.258030 0.150532 0.375412
-0.010454 -0.144490 0.074965
0.059806 0.371624 -0.194020
-0.074322 0.162335 0.203709
-0.193458 -0.127399 -0.447864
0.081814 -0.155025 -0.385930
0.183852 0.186972 -0.411666
-0.046892 -0.246880 -0.456207
-0.289680 -0.088485 -0.316054
-0.088394 0.293631 0.126455
0.463832 0.220711 0.264005
0.170322 0.399972 0.279455
0.205037 -0.097746 -0.138361
0.278931 0.081798 -0.229918
0.244766 0.101605 -0.340254
0.375173 0.327305 -0.010071
0.368393 0.341055 -0.127521
0.121201 0.504970 -0.179481
-0.100039 0.236404 -0.349506
-0.180753 -0.275235 -0.004977
0.205053 -0.204432 0.142565
0.307790 -0.134177 0.070429
0.029175 0.443446 -0.032234
0.107844 0.322732 -0.319948
0.295684 0.373173 -0.040643
-0.108171 0.056703 0.029024
-0.117509 -0.137943 -0.223220
0.143642 0.444627 -0.002969
-0.011475 -0.219071 -0.499362
-0.124182 -0.243811 -0.337916
-0.060305 -0.101239 -0.198039
0.370128 0.375330 -0.238974
0.164485 -0.138926 -0.105397
0.283783 0.391515 0.187220
-0.088936 0.243863 -0.115310
-0.260477 -0.366598 -0.088627
0.419215 0.282875 -0.191378
0.038955 0.111277 0.320686
0.302506 0.147904 0.450710
0.045248 0.342583 0.237798
-0.333051 -0.366421 0.010197
0.363695 -0.107191 0.093971
0.077929 0.443108 -0.113965
-0.347378 -0.196920 -0.312619
0.016581 0.507325 -0.006299
0.051955 -0.184350 0.058600
-0.067181 0.241687 -0.068399
0.195209 0.146721 0.376286
-0.006610 -0.017949 -0.523579
-0.058910 -0.081179 -0.523398
-0.183548 -0.003552 -0.278355
-0.035601 0.272489 -0.376794
0.144978 0.499049 -0.266164
0.422233 0.015487 0.217989
-0.025833 0.327461 -0.012014
0.030146 0.132208 -0.478560
-0.398564 -0.161085 -0.328731
-0.502895 -0.161854 -0.196335
0.060995 -0.191614 0.075132
-0.054147 -0.024066 0.181386
-0.108516 0.025433 -0.025784
-0.064860 -0.064951 -0.011881
0.417620 0.320857 0.175203
0.114876 0.232736 -0.419284
0.002951 0.246305 0.258177
-0.115114 -0.239256 -0.426833
-0.149169 0.159756 -0.189472
0.286931 0.422927 -0.252438
0.043761 0.346155 -0.036482
-0.001646 -0.139860 -0.240363
-0.114029 0.151232 0.080267
0.115998 -0.123455 -0.130599
-0.115753 -0.154889 -0.225513
-0.105896 0.000314 -0.043344
-0.228530 -0.150062 -0.278013
0.383363 -0.092159 0.117553
0.117869 -0.132376 -0.391951
0.084665 0.068621 0.353405
0.393309 0.014275 -0.144362
0.285752 0.367227 0.084938
0.021430 0.416576 0.026461
0.485891 0.263991 0.174642
-0.058784 -0.072374 -0.023759
0.285888 0.336544 0.311958
0.045661 -0.155335 -0.039236
-0.041907 0.282926 -0.363971
-0.260815 -0.120199 -0.359104
0.395434 0.322500 0.268731
-0.094132 0.282285 0.124450
0.323739 0.357505 -0.349858
0.006023 -0.193411 -0.311294
0.481760 0.245096 -0.055265
0.414962 0.075705 0.358531
0.403077 -0.065514 0.144568
-0.081467 0.138029 0.189299
0.252715 0.057223 -0.257785
0.025218 0.245496 -0.423846
-0.609503 -0.168093 -0.176705
-0.093143 0.184341 -0.401464
-0.182851 -0.255819 -0.016470
0.249689 0.244586 0.381085
0.163190 0.307169 0.335098
-0.066015 0.086008 0.130986
-0.082849 0.278814 0.145541
0.260062 0.420736 -0.159917
0.086375 0.095305 0.357459
0.421542 0.084537 0.388326
-0.181651 -0.219962 -0.291284
-0.146329 0.173697 -0.256040
0.006423 -0.097936 0.223606
0.447259 0.221524 0.354956
-0.032717 0.291369 -0.360608
0.439310 -0.011067 0.143479
-0.043085 -0.267496 -0.375562
-0.023679 0.314713 -0.320718
-0.034320 0.289287 -0.037367
0.339179 0.343908 0.031283
-0.040159 -0.269287 -0.346716
-0.040222 -0.104161 0.014930
0.480043 0.227204 0.009269
-0.274196 -0.141927 -0.359816
0.076806 0.045577 0.337845
0.354845 0.352376 0.085339
-0.118745 0.175653 -0.085417
0.153308 0.019661 -0.401911
-0.293125 -0.163587 -0.260499
0.315175 -0.101968 0.248102
0.025495 0.409923 0.015125
0.488369 0.190345 0.117315
0.069449 -0.042698 -0.550780
0.083424 0.466808 -0.253299
0.135434 -0.193054 0.179854
0.209068 0.412550 -0.276504
0.147936 0.463681 0.144615
0.014843 -0.176121 -0.298002
-0.158785 -0.246029 -0.076329
0.089951 0.377764 0.250416
0.201700 0.461048 -0.148304
-0.558211 -0.193104 -0.251878
-0.182401 -0.076021 -0.447264
-0.079484 0.080469 0.109869
0.126495 -0.155704 -0.477591
0.253044 -0.081320 -0.106764
-0.156507 -0.273060 -0.078606
0.270485 0.398034 0.163356
0.146901 0.248104 -0.393202
0.461662 0.027578 0.111794
0.319481 0.132666 -0.149759
0.046424 0.416924 -0.019433
-0.078434 -0.001551 0.093929
-0.051371 0.320891 0.141794
-0.304022 -0.319557 -0.028900
-0.547962 -0.170976 -0.183752
-0.073986 0.007201 -0.510809
-0.085104 0.301716 -0.239075
0.179221 0.092182 -0.425553
-0.000521 0.101185 0.276105
-0.512302 -0.093700 -0.172125
-0.144817 0.145570 -0.131915
-0.342695 -0.072391 -0.276778
-0.076542 0.126399 -0.431887
0.179743 0.422656 0.034711
0.355189 0.360837 0.117231
0.398694 -0.073649 0.032057
0.237167 0.159046 -0.361215
-0.263315 -0.258868 -0.069660
-0.115970 0.201429 0.002160
0.129778 -0.063697 -0.394542
0.159468 0.454042 -0.310767
0.205764 -0.147016 0.256421
0.067835 0.516883 -0.104234
0.271559 0.045504 -0.200022
-0.050863 -0.072981 0.116888
0.365424 -0.091055 0.031229
0.231105 -0.081929 0.310634
-0.436524 -0.154947 -0.320788
0.437445 0.239625 0.349998
0.106224 -0.095351 -0.222189
-0.083675 0.231366 -0.090611
0.269314 0.398144 0.181107
0.449203 0.136875 0.381746
0.240924 0.372101 -0.260541
0.242355 0.404856 0.240655
-0.060732 0.121051 0.210464
-0.538154 -0.159431 -0.286210
0.153301 0.271356 0.337173
0.123959 -0.150636 -0.419701
0.310593 0.376453 0.100482
0.220056 -0.009328 0.356686
0.495418 0.293295 0.022307
0.042067 0.519246 0.032143
-0.084768 0.082406 -0.430164
-0.126198 -0.221029 -0.463050
0.382579 0.344942 0.117983
-0.035907 -0.106526 -0.196811
0.352112 0.284790 -0.221329
0.135167 0.412019 -0.270791
0.418849 -0.057041 0.027311
-0.315146 -0.098457 -0.324422
-0.400794 -0.141427 -0.325235
0.123556 0.175038 0.351300
0.188625 0.447342 -0.089618
0.048735 -0.117744 -0.177381
0.276810 0.406459 -0.339481
-0.395851 -0.073632 -0.282945
0.026053 0.488954 0.026530
0.254436 0.273099 0.365543
0.313695 0.380716 0.128101
0.484227 0.190829 0.134711
-0.506533 -0.190065 -0.263379
0.133304 -0.102923 -0.497208
0.216840 0.209872 -0.361848
0.045152 -0.190244 -0.389861
0.280141 -0.114494 0.266353
-0.030268 -0.120882 0.039073
0.176841 0.198514 -0.411694
-0.404289 -0.188802 -0.312135
-0.338701 -0.130295 -0.332168
-0.224987 -0.328482 -0.104201
0.363278 0.308869 -0.272996
-0.098836 0.007717 0.023155
0.320845 0.179490 -0.183397
-0.009343 0.320428 -0.023859
0.434451 0.029708 0.194174
0.494885 0.243028 0.038116
0.091632 -0.096532 -0.292040
0.266580 -0.149982 0.226858
0.124841 0.476911 0.083198
-0.100827 0.236786 -0.125925
0.342900 0.199968 0.446531
0.373791 0.347230 0.127804
0.225900 0.097553 -0.380403
0.103879 -0.164569 -0.422772
-0.299710 -0.392579 -0.011216
-0.225848 -0.183985 -0.314356
0.451941 0.023303 -0.047563
0.153944 0.218305 -0.414276
0.090485 -0.173573 -0.517063
-0.224918 -0.103740 -0.392379
-0.095405 0.136473 -0.413826
0.326371 0.037902 0.336924
0.098205 0.471634 -0.029534
-0.202743 -0.184364 -0.215972
-0.061211 -0.083514 0.076297
-0.427833 -0.064588 -0.219721
0.086366 0.518424 -0.213031
0.130959 0.501122 -0.190752
0.176720 0.443250 0.212650
-0.512271 -0.169262 -0.296383
0.170290 0.476115 -0.147154
0.139474 0.284463 0.331180
0.401798 0.354373 -0.239485
0.436009 0.335760 -0.166114
0.472377 0.104426 0.176986
0.147332 0.021044 0.364510
-0.060025 0.248476 -0.054668
0.288114 -0.124685 0.037760
-0.340687 -0.375843 0.032589
0.344645 0.297511 0.371666
0.073415 0.288890 -0.377012
0.320275 -0.084279 0.265181
-0.087116 -0.001603 0.060813
-0.094443 -0.255381 -0.385362
-0.076481 -0.212054 -0.502032
0.435988 -0.000061 -0.039750
0.454801 0.070113 0.172413
0.213140 0.101115 0.377388
0.448707 0.109760 0.328173
0.320133 0.351634 0.064077
0.415816 0.259339 0.357266
-0.293977 -0.333250 -0.070182
-0.136128 0.167606 -0.128425
-0.260147 -0.311346 0.049238
-0.356489 -0.070414 -0.255037
0.491219 0.123867 0.004751
0.032590 -0.173838 0.131833
0.142884 -0.104287 -0.157216
0.399118 0.012959 -0.132686
-0.014743 -0.102892 -0.130834
-0.193829 -0.062520 -0.434229
0.044095 0.279724 -0.393311
-0.297427 -0.112175 -0.247640
0.130780 -0.174887 0.213336
-0.246087 -0.114414 -0.265124
0.096473 -0.111968 -0.159357
0.397962 0.324724 0.246100
0.022897 0.348865 0.210219
0.091460 -0.193791 -0.457799
-0.101688 -0.111706 -0.504901
-0.074614 0.338017 0.052223
-0.146251 -0.225449 -0.421626
0.394177 -0.004668 0.250972
0.250643 -0.104959 -0.087853
0.242210 -0.164178 -0.005737
0.009974 -0.077534 -0.548003
0.002690 -0.054919 -0.542404
-0.150132 0.159450 -0.288981
0.279962 0.185555 0.442241
0.169657 0.435843 -0.055720
-0.041512 0.344509 0.013839
-0.158217 -0.219092 -0.112436
0.271147 0.370523 -0.330134
0.297596 -0.113217 0.027741
-0.284115 -0.095980 -0.259447
-0.100213 0.114586 0.039624
-0.140326 -0.075378 -0.212497
0.354684 0.245480 -0.137125
-0.478376 -0.179506 -0.227899
0.064673 -0.141693 -0.083046
-0.053704 0.296533 -0.020857
-0.058921 -0.229308 -0.484189
-0.119650 0.082092 -0.007755
0.228357 0.436532 -0.291232
0.315753 -0.052678 0.297135
0.422435 0.298332 0.003375
0.118778 -0.098483 0.299737
-0.099393 -0.055255 -0.121315
0.111357 0.410636 0.211213
0.124528 -0.139604 -0.502955
0.411394 -0.057575 0.076504
0.042857 -0.158068 0.189068
-0.428289 -0.154670 -0.209632
0.014146 0.140481 -0.475402
0.144124 0.059021 -0.435253
0.442705 0.073490 -0.075679
0.133811 0.309357 -0.327869
-0.281379 -0.356414 -0.080596
-0.030927 -0.121377 0.086884
0.198551 0.405579 0.103639
0.330490 -0.063738 -0.103809
0.035883 0.363722 -0.021032
0.440900 0.314842 -0.095894
-0.194907 -0.151096 -0.266365
-0.307106 -0.313844 0.009348
0.456082 0.154127 -0.079364
0.093161 0.482030 -0.007595
-0.219535 -0.255168 -0.011686
0.157928 0.428042 0.254651
0.169504 0.425158 0.051764
0.048383 0.102204 0.327531
0.312092 0.174659 0.452352
0.260933 -0.100334 -0.077453
-0.076293 0.332670 0.106391
-0.113542 0.221415 -0.140072
-0.136626 0.056518 -0.090354
-0.050095 0.359910 0.102006
-0.132188 -0.062106 -0.206617
-0.106815 -0.079323 -0.502276
0.326495 -0.130662 0.077723
0.501872 0.226838 0.089421
0.255784 0.151878 -0.328649
0.193734 0.421269 -0.287091
0.330923 0.303706 -0.283015
-0.199183 0.002273 -0.393144
-0.086080 0.304186 0.007682
0.464949 0.249278 0.211407
0.137898 0.424559 -0.291201
-0.080823 -0.025446 0.068908
0.212575 0.027523 -0.338029
0.296460 -0.038289 -0.135019
0.445022 0.185980 -0.093048
-0.232116 -0.163203 -0.285778
0.352458 0.093528 -0.152414
0.383764 0.001417 -0.147006
0.349372 0.212622 -0.131049
0.324265 0.406563 -0.335671
0.056928 0.516437 0.036631
0.063191 -0.051062 0.309200
0.495369 0.290844 0.057445
0.159548 0.199774 -0.420469
0.123108 -0.038159 -0.488825
-0.091936 -0.007696 0.013560
-0.103214 0.197078 -0.010066
0.108478 0.460208 0.000787
0.163247 -0.088219 -0.451356
-0.134545 0.225325 0.092679
0.445135 0.267683 0.276905
0.320309 0.169037 -0.146449
0.490180 0.111619 0.047903
0.462627 0.033063 0.099934
0.438685 0.012256 0.161662
0.370786 0.335322 0.195485
0.080514 0.432899 -0.181267
-0.123902 0.136468 -0.381622
0.445048 0.230957 -0.122785
0.172860 -0.025355 -0.300131
-0.443641 -0.159045 -0.208995
-0.016865 0.080722 0.245324
-0.172177 -0.232104 -0.286409
0.018585 -0.246100 -0.416094
0.071784 -0.017968 0.330036
0.209146 -0.166238 0.233765
-0.004543 -0.162041 -0.267184
-0.082434 0.154175 0.193123
0.470710 0.044300 0.051006
0.458594 0.225375 -0.061090
0.229626 0.239390 0.357524
0.124075 -0.105633 -0.167102
0.064314 0.428632 0.145012
0.479925 0.170496 -0.045607
-0.016243 -0.258335 -0.421124
-0.256766 -0.244760 -0.128917
0.384384 0.330569 -0.123369
-0.040241 0.120396 0.238516
0.387731 0.313980 0.062337
0.285127 0.055643 -0.178230
0.159739 0.434714 0.014639
0.257443 0.366595 -0.304503
-0.000669 -0.107046 0.205697
0.296375 0.419040 -0.285262
0.017733 -0.113787 -0.545901
-0.296776 -0.136114 -0.247321
-0.480749 -0.082193 -0.189836
-0.021502 0.272435 0.223574
0.490593 0.089123 0.031595
0.475577 0.303883 -0.177973
0.069217 0.008844 -0.456054
0.432812 0.039040 0.213747
-0.116885 0.191933 -0.112810
-0.192201 0.019303 -0.354729
0.470372 0.312847 -0.084562
-0.020546 -0.254889 -0.432906
-0.031772 -0.240692 -0.311289
-0.100562 0.251521 -0.337502
0.460259 0.079864 0.179191
-0.095442 0.103094 0.056192
-0.161181 0.105411 -0.249375
0.500424 0.148292 0.028322
-0.041832 -0.034689 0.194982
0.017834 -0.050321 0.267688
-0.033816 -0.034927 0.209520
0.067549 -0.215055 -0.455227
-0.139858 0.202650 -0.302196
0.353441 0.278662 -0.205509
0.231698 -0.183884 0.046507
-0.202751 -0.230166 -0.065217
0.036731 0.118496 -0.478437
0.412899 0.300747 0.044833
-0.158518 -0.182112 -0.164425
-0.026978 0.226878 -0.425362
0.507415 0.227079 0.104862
0.059516 0.312623 -0.346551
0.188793 0.286191 0.338647
-0.222751 -0.116037 -0.272377
-0.237980 -0.263804 -0.001528
0.472251 0.058302 0.090632
-0.117053 0.249206 -0.194720
-0.094751 -0.028307 -0.076134
0.057368 0.148121 0.326386
-0.143205 -0.099663 -0.221335
0.460724 0.135056 0.343504
-0.186483 -0.209058 -0.107712
-0.120149 0.196011 -0.128941
0.062752 0.436299 -0.091556
-0.539165 -0.131958 -0.162157
0.360230 0.139954 0.452702
-0.035847 -0.089260 -0.058862
-0.117782 -0.041816 -0.128720
-0.255271 -0.339019 -0.128153
0.438717 -0.016213 0.022088
-0.134355 -0.201623 -0.172768
0.324602 0.297282 -0.263017
0.070087 0.089277 0.346441
-0.157698 0.130716 -0.251074
0.372946 0.324800 0.038849
0.206584 0.455261 -0.110420
-0.151520 0.064993 -0.384577
0.146614 0.490016 -0.163358
0.004349 -0.097951 -0.543446
0.374069 0.378627 -0.301925
0.447838 -0.001405 0.124345
0.433521 0.293887 -0.196656
-0.010104 -0.169705 -0.276147
-0.014515 0.031421 0.246292
-0.497453 -0.091312 -0.225108
-0.035665 0.324838 0.158398
-0.193006 0.009225 -0.406088
0.318907 -0.054163 -0.120423
0.009908 0.311249 -0.335730
0.341897 0.341403 0.299452
-0.181627 -0.253572 -0.260763
-0.159113 0.015033 -0.444419
0.135646 0.129940 -0.453739
0.368927 0.107209 0.441995
-0.058848 -0.065993 -0.058312
-0.037968 -0.094896 -0.526343
0.379898 0.244528 -0.145284
-0.125011 -0.241140 -0.294196
0.394658 0.316119 -0.004280
0.459823 0.240774 0.286207
0.043978 -0.231513 -0.434757
0.041506 0.410552 0.157247
0.232641 -0.012073 0.352212
-0.181470 -0.173005 -0.184120
0.262157 0.083331 -0.287004
0.304884 -0.146829 0.136904
0.260802 -0.088448 -0.090664
0.446372 0.103674 0.347254
0.453267 0.030107 0.138767
0.417275 0.308759 0.106759
-0.020312 -0.079930 -0.534411
0.327582 0.360473 0.258991
0.308622 0.366069 -0.035073
-0.561898 -0.173876 -0.177928
0.090620 -0.169567 -0.415970
-0.303274 -0.384438 0.001258
0.302805 -0.073920 -0.075374
0.207333 0.218739 -0.367022
0.204147 -0.039560 0.345135
0.453159 0.324485 -0.132314
-0.257844 -0.154390 -0.368942
-0.035166 0.079027 0.193154
0.453640 0.263398 -0.167158
0.153320 0.452354 -0.081086
0.280115 0.067422 -0.219190
-0.113398 0.166628 -0.388002
0.239476 0.415752 -0.070738
0.163880 -0.071069 -0.206042
0.396263 -0.071246 0.109275
0.440244 0.289769 0.217919
0.081104 0.399785 -0.198188
0.237421 0.387206 -0.266255
-0.550135 -0.152343 -0.238087
0.318847 0.171421 -0.199539
-0.109384 0.183080 -0.056761
-0.216309 -0.271534 -0.226570
0.457132 0.002614 0.061322
-0.274027 -0.085914 -0.317325
-0.004179 -0.151296 0.097030
0.267701 0.241476 -0.261212
0.022215 0.318489 -0.330953
0.115247 -0.115925 -0.514144
0.071011 0.426882 -0.096634
0.175449 0.459780 -0.099449
0.144813 -0.027134 -0.347633
-0.164781 0.034774 -0.431751
-0.018661 -0.051652 0.225990
0.188707 0.104991 -0.419044
0.295080 0.044516 -0.176361
0.397502 0.075437 0.338878
0.468894 0.080165 -0.033668
-0.195662 -0.093351 -0.260427
-0.410715 -0.104039 -0.276813
0.465107 0.295164 0.161353
-0.044641 0.364446 0.053205
0.188890 -0.017970 0.356033
0.173623 -0.018644 -0.321195
0.170367 -0.181236 -0.035610
0.234703 0.429534 -0.139446
0.380837 0.097904 -0.142362
0.067373 0.323196 -0.328540
0.282557 0.388997 -0.072631
-0.006974 -0.004369 0.246755
0.245229 0.255962 0.359052
-0.101525 0.014017 -0.002092
-0.432287 -0.180886 -0.233524
-0.117644 0.259645 -0.247744
0.020553 -0.190365 -0.337874
-0.517327 -0.067696 -0.179819
0.265662 0.224403 -0.263393
0.380238 0.326512 -0.036702
0.114180 -0.103147 -0.191670
-0.117316 0.068914 -0.012264
-0.076378 0.034976 0.133607
0.061178 -0.092965 -0.554694
-0.530050 -0.143196 -0.170579
0.137001 -0.099239 -0.173602
-0.138067 0.223959 0.064624
0.456724 0.314676 -0.076749
0.116631 -0.020058 -0.456686
0.106177 0.191052 0.345279
0.430440 0.248676 -0.163827
-0.084886 0.023356 0.114740
-0.349104 -0.124889 -0.225964
0.066339 0.511577 0.047303
0.187032 -0.139554 0.264995
-0.107974 0.256216 -0.166159
0.401241 0.076559 -0.134021
0.045563 -0.159653 -0.297727
0.085515 -0.180154 -0.423159
0.091946 0.451917 0.146413
0.032723 0.080422 0.313222
0.366077 0.247746 0.412182
-0.242617 -0.308550 -0.174040
0.312467 -0.091169 -0.007907
0.059652 -0.192993 -0.512849
0.078257 0.110968 0.349403
0.153064 0.034470 -0.415866
0.065028 -0.099029 -0.230407
0.341706 0.352797 0.238320
0.008271 -0.041830 0.260670
-0.037973 0.245110 0.222625
0.164097 0.034255 0.370645
-0.260210 -0.279101 -0.161994
0.462103 0.297698 0.065710
0.258497 0.209504 -0.279536
0.160210 -0.049733 0.341636
0.374075 -0.100883 0.137784
-0.202702 -0.015226 -0.390383
0.326179 -0.126176 0.177803
-0.113336 0.261231 0.005785
0.437659 0.278291 0.275481
0.353359 0.316190 0.339378
0.066290 0.517962 0.006654
0.193247 0.191920 -0.402566
0.307375 -0.011966 -0.161108
0.080305 0.487138 -0.198147
0.131468 0.452265 0.203479
0.496775 0.191197 0.077929
-0.597398 -0.158407 -0.147723
-0.492010 -0.104543 -0.234329
-0.037683 0.016942 0.204725
-0.222221 -0.231222 -0.231311
-0.610433 -0.184345 -0.205771
0.259598 0.354714 -0.292870
0.003302 0.194250 -0.453575
0.182602 0.220252 0.361865
-0.062378 -0.263739 -0.382236
0.171601 -0.015751 -0.337662
0.061064 -0.157284 -0.052695
0.042812 0.419261 0.144870
0.352765 -0.047942 0.266330
-0.030366 0.303191 0.181134
0.442817 0.239946 -0.149616
-0.004452 0.310949 -0.034779
0.258790 0.037619 -0.230131
0.293943 0.198781 -0.249422
-0.244507 -0.253582 -0.042673
-0.061673 -0.075926 -0.113776
0.168411 0.033764 -0.399260
-0.216457 -0.242329 -0.244427
0.009642 -0.111712 -0.220599
-0.439570 -0.074137 -0.209260
0.243064 -0.085912 0.303643
-0.158357 -0.264968 -0.059982
0.009165 -0.043245 -0.543292
0.039392 0.283635 0.274544
0.273262 0.152043 -0.278598
-0.037836 0.100613 0.221451
0.347404 0.225539 -0.132241
-0.021557 -0.063767 0.216481
0.368210 0.072349 0.322485
0.125344 0.221089 -0.423260
-0.156259 0.114448 -0.280628
0.305034 0.361572 0.031617
-0.512471 -0.119986 -0.172031
0.446834 0.002891 0.138468
0.000280 0.044357 -0.462211
0.081370 0.445884 -0.191489
-0.110831 0.224913 -0.004743
0.383707 0.363748 -0.163634
-0.103232 0.238274 0.143497
0.209739 0.455274 -0.137923
0.145706 -0.097479 0.305691
0.155293 0.439195 0.129428
-0.103806 -0.221925 -0.259301
-0.457479 -0.154121 -0.202873
-0.126654 -0.053532 -0.197481
0.088350 0.231182 -0.426965
0.376280 -0.086130 0.003243
0.137077 0.440142 0.083734
0.113202 0.160938 -0.458976
-0.407407 -0.198292 -0.282048
-0.310940 -0.335061 -0.022785
-0.226230 -0.190066 -0.328034
-0.228557 -0.073683 -0.360193
0.033368 -0.082415 -0.556410
-0.302602 -0.369179 -0.041512
0.255486 0.391508 -0.021769
0.041649 0.345327 -0.262341
0.417683 0.323404 0.144573
-0.213058 -0.055399 -0.386379
0.058799 0.344736 -0.229124
-0.178527 0.036136 -0.392702
0.424754 -0.012019 0.176430
0.193066 -0.152209 -0.075278
-0.024272 0.151023 0.265385
-0.031105 -0.089758 -0.073292
-0.065900 0.110744 -0.443631
-0.084636 -0.078918 -0.177262
0.156624 0.254659 -0.377352
-0.018040 -0.126715 0.011737
0.498126 0.209139 0.054533
-0.167568 0.026945 -0.274781
-0.100142 0.103815 -0.414204
-0.097716 -0.232086 -0.273020
-0.001807 0.325731 -0.112472
0.296335 0.362623 0.074334
0.026542 -0.186377 -0.353229
0.055193 0.155455 -0.473284
0.048077 0.434555 -0.060608
-0.141247 0.185044 -0.212442
0.052327 0.401287 0.187674
0.039962 -0.110049 0.248249
0.079326 0.157146 -0.466177
-0.117070 0.174342 -0.376762
0.057913 0.389040 -0.124711
-0.028575 -0.244933 -0.460649
0.362306 0.201584 0.442735
0.002193 0.316384 -0.316783
0.075284 -0.205574 -0.441426
0.086509 -0.202323 0.076491
0.198326 0.115763 0.375744
0.301662 0.213683 -0.246148
0.435569 0.304048 0.205875
0.138575 -0.113382 -0.399369
0.309336 -0.087437 -0.019602
0.313328 -0.138689 0.171379
-0.335959 -0.082628 -0.299551
-0.171498 -0.286721 -0.187175
-0.104775 0.034893 0.031522
0.055218 0.002504 -0.489695
0.351682 0.125328 -0.143245
-0.122252 0.141218 -0.069841
0.163621 -0.212861 0.118816
0.473778 0.233416 -0.023081
0.057068 -0.221696 -0.459124
0.242266 -0.002529 -0.223217
-0.124666 0.206287 -0.145474
-0.247627 -0.123513 -0.368953
0.451411 0.300956 -0.017654
0.100651 0.508844 -0.106138
-0.041771 0.221645 0.226926
-0.091123 -0.084748 -0.194807
0.242757 0.325657 0.302370
0.179328 0.430020 -0.039711
-0.004426 -0.068903 0.235176
0.492342 0.301708 -0.130093
0.280610 0.098037 -0.237240
0.461459 0.169294 0.274390
0.343068 0.160217 0.454607
-0.518666 -0.150057 -0.272939
0.312373 0.306164 -0.292941
-0.307678 -0.378133 0.011455
-0.465950 -0.077873 -0.240633
-0.159068 0.061367 -0.368838
-0.039282 0.036113 0.197902
0.243030 0.407846 0.218071
-0.153759 0.136042 -0.172194
0.309783 0.288034 -0.258684
0.050625 0.182946 0.318599
0.212760 0.299664 0.330028
0.272042 0.135394 0.414229
-0.095653 0.225136 -0.102493
0.211708 0.403391 0.064899
0.074614 0.418689 -0.163990
-0.188746 -0.309709 -0.161555
0.317445 0.018706 0.333002
-0.136122 0.151349 -0.351665
-0.275568 -0.287163 0.028837
-0.143871 0.067095 -0.129390
0.134472 0.313091 0.320794
0.360661 0.289068 0.372436
0.025028 0.416129 0.121887
0.104521 -0.128292 -0.364880
-0.197266 -0.245405 -0.032865
0.032619 0.429712 -0.006589
0.498820 0.282050 0.122880
-0.142411 0.176347 -0.319053
-0.235219 -0.317530 -0.085785
0.323911 0.072023 0.399092
0.362197 0.252667 -0.154884
0.200796 0.358135 0.291657
0.147412 0.313372 -0.298311
-0.203943 -0.312851 -0.133027
0.345535 0.379972 -0.141193
0.108041 -0.008907 -0.410689
0.113353 0.500964 -0.100992
-0.031245 0.063733 0.198270
0.215371 -0.100720 0.299790
0.283664 0.318599 -0.278966
0.334447 0.288058 -0.245078
-0.241275 -0.173344 -0.371763
-0.156815 -0.089683 -0.230018
-0.251422 -0.238426 -0.142217
0.473325 0.088203 0.124606
-0.146890 -0.252998 -0.128241
0.251160 0.419008 -0.078748
-0.092204 0.052511 -0.473643
0.511902 0.257220 0.074344
0.439988 0.206679 -0.095207
-0.332274 -0.327017 0.080293
-0.569534 -0.194246 -0.225408
0.070018 -0.137004 -0.295229
0.070023 -0.197822 -0.502731
0.430772 0.002136 0.184903
-0.130652 0.220053 -0.259289
0.405540 0.231261 -0.119561
-0.019860 0.326125 -0.192723
-0.286822 -0.146981 -0.254641
-0.123336 0.105234 -0.387517
-0.016756 -0.229272 -0.488280
0.226931 0.095347 0.376526
0.010147 0.336678 -0.121345
-0.263676 -0.177124 -0.358211
0.344690 0.168878 -0.134608
0.457657 0.309184 -0.190801
0.111485 0.495636 -0.299125
-0.289504 -0.297005 0.000674
-0.153800 -0.232798 -0.293979
0.068264 0.515689 0.028132
0.268292 0.179705 0.430157
-0.164978 0.057187 -0.213893
0.064316 0.025661 0.330235
-0.186118 -0.204811 -0.395807
0.385328 -0.007612 0.262151
0.345181 0.331530 0.316385
0.162878 -0.044371 -0.286609
0.231529 0.398032 0.030046
-0.185415 -0.136199 -0.474654
-0.423841 -0.170112 -0.319784
-0.148149 -0.231662 -0.339625
0.007368 0.362655 0.175717
0.294721 -0.077337 -0.065053
-0.054089 -0.158045 -0.244494
0.152808 0.323051 -0.248199
0.115554 -0.169059 -0.461818
-0.080551 -0.111783 -0.211416
0.180717 0.309757 -0.246042
-0.024743 0.386893 0.097405
0.099683 -0.108722 -0.195394
0.055890 0.295594 0.280983
-0.138659 0.176352 -0.139967
0.272880 0.390688 0.134282
-0.017090 0.098365 0.249719
-0.045772 -0.167010 -0.255017
0.083864 0.252606 0.316021
0.304774 -0.143891 0.186386
-0.064366 -0.186685 -0.263097
0.373160 0.346645 0.094185
-0.273487 -0.271355 -0.059961
-0.078900 0.095695 0.107726
0.122656 -0.158328 -0.076597
0.461289 0.150357 0.355778
0.142148 0.212928 -0.422048
0.043040 -0.229559 -0.460011
-0.071361 0.241678 -0.083431
0.045821 -0.175470 -0.367682
-0.304278 -0.352903 -0.043113
0.358746 0.383266 -0.260822
0.019435 -0.161431 0.148677
0.177327 0.046662 -0.399102
0.258804 0.399988 -0.320074
0.339334 0.373393 -0.354873
0.272631 -0.138966 0.239284
0.096534 0.476469 0.124953
-0.122401 0.027685 -0.069079
0.229391 -0.191604 0.079839
0.372764 0.380840 -0.318852
0.404406 -0.055894 0.095952
-0.248666 -0.248960 -0.060636
-0.121583 -0.000919 -0.490888
0.175209 0.478583 -0.202314
-0.120697 0.252316 -0.274002
0.485109 0.230413 0.187939
0.171378 0.018564 -0.383386
-0.046921 -0.085232 0.110967
-0.246754 -0.322413 -0.065770
0.415805 0.005204 0.224456
0.190050 -0.101020 -0.140885
-0.044868 -0.078760 0.151172
0.087405 0.507651 -0.045888
0.405654 0.102270 -0.130365
-0.048992 0.067369 -0.452732
-0.216780 -0.217699 -0.097991
-0.199160 -0.171167 -0.449445
0.092951 0.155566 0.347260
0.457182 0.220052 0.237707
0.179073 0.435303 -0.069366
0.496435 0.272446 -0.053329
0.423800 0.201786 -0.109945
0.066552 0.097118 -0.471902
0.289671 0.092691 0.370859
-0.011794 0.298182 0.206966
-0.045015 0.114031 0.226074
-0.226003 -0.143152 -0.408018
-0.149148 0.171556 -0.170562
0.441500 0.053081 0.201415
-0.132044 0.252636 0.074543
0.153258 0.415593 -0.282744
0.402048 0.092793 0.313577
0.152255 -0.175275 0.217374
0.156236 0.164261 0.363822
-0.296956 -0.304428 -0.024334
-0.193540 -0.202740 -0.377096
0.268629 0.106850 0.375276
0.183559 0.115971 0.373180
-0.070720 0.312334 -0.234846
0.338781 -0.128093 0.125356
-0.121465 -0.175184 -0.516694
0.107162 0.112453 0.365940
-0.002856 0.346663 -0.007798
0.264582 0.435190 -0.246332
-0.383239 -0.083619 -0.292210
0.396276 0.089904 -0.137076
0.069659 0.342014 -0.256619
0.377029 0.138723 -0.131681
-0.122562 0.091991 -0.030551
-0.118059 0.187597 -0.100696
-0.403069 -0.123139 -0.290426
0.293163 -0.060449 0.306709
0.034618 0.101515 -0.476763
0.133949 0.450969 -0.025370
-0.265533 -0.330555 -0.022090
0.314252 0.078279 0.383954
0.392886 0.364603 -0.257850
0.245148 0.267492 0.350899
-0.205122 -0.066118 -0.408945
0.270412 -0.163934 0.197894
0.142918 -0.055675 -0.471706
0.178774 0.427757 0.259976
-0.099882 0.087154 -0.417956
0.182825 0.255408 0.351467
0.411162 0.057163 0.269725
0.318581 0.330828 0.331629
0.039446 0.306843 0.256011
0.081741 -0.114780 -0.185743
0.129282 0.394330 0.263891
-0.488277 -0.154610 -0.193870
0.464646 0.318494 -0.134767
0.139702 0.440207 0.048724
-0.225047 -0.082746 -0.299781
0.120643 0.400341 0.245971
-0.066235 0.172716 0.214653
0.102889 -0.195261 0.010045
-0.098378 -0.210028 -0.254048
0.011667 0.400911 0.140838
-0.136991 -0.034106 -0.189247
0.363424 -0.029975 -0.135258
0.396308 0.337512 -0.138693
0.045379 0.528529 0.002452
0.133455 0.045038 0.371337
0.279950 0.232481 -0.257232
0.034345 -0.011700 0.299627
0.261479 0.387197 -0.009162
0.168511 0.484919 -0.242453
0.451978 0.133532 -0.088163
-0.535184 -0.190185 -0.250971
0.366738 0.187490 0.444114
0.138442 0.079308 -0.443860
-0.124991 0.238234 -0.306273
-0.363098 -0.131332 -0.221458
-0.019832 -0.107074 -0.048231
0.295226 -0.140632 0.207939
0.187041 0.410307 -0.275945
0.492470 0.149768 -0.022131
-0.216931 -0.286097 -0.213822
0.263456 0.078124 -0.274579
-0.399680 -0.196408 -0.270847
-0.084836 -0.259981 -0.341754
-0.111677 -0.051162 -0.139064
0.086527 -0.032196 0.330900
0.064726 0.403246 -0.031489
0.510406 0.278407 0.093924
-0.211995 -0.193777 -0.194946
0.011000 0.354062 0.188366
0.185771 0.306306 0.334048
-0.554919 -0.183745 -0.200615
-0.266937 -0.348787 -0.105177
-0.201708 -0.258074 -0.002113
-0.116845 -0.129704 -0.509492
0.088994 0.370596 -0.217989
-0.032141 -0.114322 0.018886
-0.164776 -0.070302 -0.233803
-0.491737 -0.104876 -0.180810
0.262000 0.436415 -0.297286
0.127384 -0.144865 -0.098543
0.398460 0.184690 -0.119868
0.409406 -0.031954 -0.056745
-0.144752 -0.093502 -0.481151
0.413763 0.306427 -0.041721
-0.093619 -0.142360 -0.226467
0.046391 0.300561 -0.360645
0.306881 0.044088 0.345821
0.258827 0.378474 -0.317542
0.058892 0.358457 -0.204257
0.280605 -0.048561 -0.116005
0.316862 0.409373 -0.307859
-0.133069 0.060727 -0.076137
0.260351 -0.140244 0.248903
0.111437 -0.104617 -0.353739
-0.297535 -0.297114 0.052552
0.365555 0.303104 0.350195
-0.027553 0.276301 -0.068412
0.348349 0.348828 -0.082280
0.299378 0.380712 0.201840
-0.089543 0.226079 -0.031322
0.030062 0.479188 0.039388
-0.100227 0.281016 -0.220380
-0.124756 0.175853 0.038652
0.469982 0.241231 -0.132467
0.270251 0.411801 -0.080909
0.277778 0.379404 -0.009395
0.098626 -0.156246 -0.073369
0.276675 -0.026707 -0.147153
-0.085070 0.099385 0.092433
0.256717 0.369928 0.266965
-0.203360 -0.282546 -0.076165
0.495926 0.163639 0.088961
0.263309 -0.174489 0.146121
-0.092957 -0.239545 -0.449774
-0.019242 -0.264260 -0.397549
-0.092162 0.116151 -0.420869
-0.204971 -0.193797 -0.154770
0.285623 0.287258 0.382297
-0.071076 0.327562 0.119864
-0.252739 -0.356651 -0.065957
0.018074 0.334786 -0.284246
-0.060183 0.355026 0.070753
-0.156466 0.070751 -0.315511
0.220869 -0.190922 0.046952
0.143486 0.145747 -0.450932
0.341616 0.264873 0.408926
0.389855 0.287953 -0.194976
-0.091306 0.268329 0.137734
0.490585 0.174725 0.122565
-0.057932 -0.113194 -0.513137
0.290777 -0.030158 -0.143252
0.460047 0.109792 0.227812
-0.236708 -0.339187 -0.136096
0.030731 -0.126833 -0.545590
0.151476 0.304746 -0.313532
0.353765 0.304106 -0.263379
0.056925 0.479876 0.078399
0.081949 -0.097300 -0.229232
-0.151817 0.128838 -0.156590
0.103361 0.132998 0.358040
0.309884 -0.035404 0.311393
0.104285 0.493221 0.052823
0.012504 -0.079890 0.248459
-0.054550 -0.095176 0.073275
-0.166546 0.076186 -0.205058
-0.115637 -0.233777 -0.445356
0.124418 0.419760 -0.276205
0.185958 0.424801 -0.009307
0.285259 0.057500 0.357912
0.106568 0.441167 -0.278643
0.072090 -0.165223 -0.392383
0.201731 0.341439 0.306796
0.071669 0.438192 -0.103956
0.135381 0.104241 0.372383
-0.148507 -0.006392 -0.198347
-0.608539 -0.172705 -0.191764
0.504132 0.285412 0.049778
-0.456387 -0.131303 -0.274806
0.474230 0.171744 0.313340
0.035185 0.420502 0.128225
-0.041548 0.213370 -0.431748
0.012076 0.267631 0.256995
-0.106598 0.184338 0.155078
-0.421125 -0.166684 -0.220171
0.172916 0.146594 -0.431189
0.060830 0.069133 0.336613
0.070525 -0.184743 0.154833
-0.082948 -0.257906 -0.316015
0.284185 0.370424 -0.339572
0.019651 0.524179 -0.035548
0.076543 0.479465 0.099623
-0.147506 0.021200 -0.133873
-0.180747 -0.212493 -0.302339
-0.036906 -0.162729 -0.530843
-0.078068 -0.131175 -0.223122
0.108094 0.457991 0.163797
0.390575 -0.072965 0.088244
0.054674 0.132188 0.326487
0.046961 0.129328 -0.477759
0.442134 0.109490 0.257142
-0.050222 -0.075229 -0.060261
-0.142582 -0.162452 -0.511422
-0.194700 -0.279453 -0.136687
0.103364 0.515639 -0.210564
0.067569 -0.005722 -0.512792
0.228936 0.433794 -0.157815
-0.071980 0.071688 0.130801
0.103981 0.213042 0.339156
-0.185571 -0.000419 -0.427183
0.157870 -0.114447 0.289906
0.010494 -0.204890 -0.340646
0.362787 0.309560 -0.288800
-0.140753 -0.250132 -0.163767
0.002170 0.243408 -0.423212
0.352114 0.064482 0.366245
0.438716 -0.016850 0.043261
-0.041903 0.043462 -0.476722
-0.133085 -0.017422 -0.487338
0.190979 0.205662 -0.396284
-0.444672 -0.094418 -0.200143
0.261239 0.161656 0.398072
0.006305 0.231087 -0.430720
0.039371 0.343134 -0.223044
0.298399 0.376883 -0.349503
-0.103294 -0.253542 -0.340963
0.194560 -0.181848 -0.019811
0.086971 -0.193744 0.141566
-0.100325 -0.029520 -0.089261
0.285877 -0.161471 0.149657
0.101506 0.509894 -0.133440
0.323693 0.403885 -0.283841
0.210584 0.448237 -0.191093
-0.195934 -0.317907 -0.150768
-0.102642 0.226600 -0.116013
-0.011740 0.018732 0.238675
0.164269 0.182659 -0.425236
-0.070190 -0.091886 -0.191594
0.030799 -0.111085 -0.548985
-0.305993 -0.307793 0.032408
-0.543653 -0.089347 -0.191791
0.363033 -0.015830 0.281019
-0.078713 -0.046420 -0.062385
0.302991 0.087210 -0.169745
0.023525 0.165478 0.300916
-0.133394 -0.070886 -0.487718
0.363326 0.290942 -0.214466
0.288693 0.101513 -0.210997
-0.344060 -0.112101 -0.227960
0.064663 -0.187943 0.041560
-0.164717 0.104412 -0.211513
-0.209589 -0.182695 -0.401562
0.492532 0.113130 0.030039
0.095686 0.333679 -0.280763
0.265707 0.392209 0.239413
0.239750 0.383964 0.139292
0.378979 -0.038426 -0.109080
-0.121031 0.091469 -0.393810
0.488330 0.299491 -0.013623
0.132571 0.002370 -0.399888
-0.213273 -0.187931 -0.382967
0.238098 0.413623 -0.278438
0.052744 0.056174 -0.462713
0.035497 0.027020 -0.457332
0.198461 0.144708 -0.410251
0.251387 -0.049814 -0.159691
0.208210 -0.182129 -0.006229
0.146110 -0.001219 0.357319
-0.102260 0.305836 0.034984
0.347139 0.022829 -0.171111
-0.069752 0.067097 -0.449887
0.493623 0.231095 0.056213
0.394696 0.051185 -0.140948
-0.171374 -0.002551 -0.441614
-0.133932 0.006439 -0.113338
-0.009508 -0.124121 -0.535918
0.350210 0.349852 -0.104055
-0.090214 0.034138 0.070138
-0.064902 -0.117597 -0.213472
0.474854 0.191259 0.286405
0.028735 0.411608 0.136697
0.189000 0.074112 0.374228
-0.462876 -0.173347 -0.220126
-0.109288 0.244396 -0.004842
-0.188646 -0.178203 -0.459732
-0.113620 -0.205128 -0.497397
0.252552 -0.179987 0.162087
0.365587 -0.097112 0.063139
0.345182 -0.003006 0.306313
0.331835 0.301519 0.369583
0.220666 0.395356 0.096334
0.011059 0.158874 0.291828
-0.080905 0.062258 0.115554
-0.460578 -0.051043 -0.222646
-0.146660 -0.239570 -0.280047
0.134900 0.408980 0.249321
-0.116871 -0.245763 -0.310061
0.252809 0.402401 -0.307661
-0.102220 0.271129 -0.005059
0.224907 -0.122235 0.279453
0.253428 0.179986 -0.315623
0.350615 -0.111299 0.053445
0.357634 0.325435 0.318828
0.019558 -0.235298 -0.387321
0.004045 0.332289 -0.146053
0.264195 0.192041 -0.277075
0.353527 0.217596 0.440035
0.362362 0.332068 0.025058
-0.084311 0.013023 0.102667
0.329699 0.251866 -0.228654
0.404582 0.322100 0.195964
0.234247 0.204392 -0.337538
0.000173 -0.251059 -0.436401
-0.028196 0.180486 -0.450021
-0.280438 -0.374247 -0.064775
0.163148 0.378499 -0.235259
-0.355675 -0.103808 -0.308389
0.123434 0.145913 -0.457248
-0.314773 -0.333474 0.073733
0.053455 0.377232 0.209948
0.486977 0.084734 0.045056
0.101001 0.336408 -0.251944
0.382448 0.305165 0.330426
0.384976 0.323079 0.213721
0.397467 0.357286 -0.169288
0.413391 0.268974 -0.180144
0.091458 -0.137450 -0.335592
-0.369369 -0.069895 -0.243594
-0.316698 -0.087215 -0.308406
0.169135 0.431110 0.002777
-0.241818 -0.185446 -0.315829
-0.296526 -0.084801 -0.266204
0.039934 -0.162029 -0.012720
0.258253 -0.167783 0.204622
-0.428235 -0.131990 -0.290874
0.264107 0.379505 0.259426
-0.164882 -0.202168 -0.455217
0.454888 0.131114 0.301354
0.407033 0.010913 0.243259
0.260662 -0.095490 0.290809
0.036620 -0.124188 -0.249340
-0.164512 0.104760 -0.233317
-0.404333 -0.123722 -0.207332
-0.059511 -0.074244 0.021206
-0.213292 -0.168514 -0.422849
-0.139566 0.222713 0.049497
0.390386 0.349807 -0.322215
0.033793 0.313770 -0.342181
0.301466 0.365227 0.009454
-0.040965 0.159216 0.245666
-0.396825 -0.060640 -0.269302
0.033081 0.381920 -0.009807
0.410816 0.306652 0.275665
-0.006544 -0.137363 0.013718
-0.572590 -0.106268 -0.160435
0.060868 0.464141 -0.100395
0.050966 -0.206679 -0.501569
-0.383440 -0.129687 -0.306254
-0.432519 -0.141485 -0.313601
0.275313 -0.138714 0.006221
0.077238 0.372017 -0.043328
0.014702 0.335334 -0.178627
-0.114838 -0.016672 -0.099417
0.133816 0.446144 0.019863
0.270929 -0.088501 -0.072895
0.210201 0.411547 -0.000080
0.208862 -0.152751 -0.061357
-0.575746 -0.150638 -0.206060
0.222393 0.306636 0.322883
-0.291359 -0.315156 -0.074801
0.391603 0.076140 0.411002
-0.096138 0.204591 -0.021467
-0.143119 0.181301 -0.229526
-0.065148 0.200197 -0.413305
0.435740 0.289519 0.239310
0.263830 -0.001611 -0.195235
-0.154400 -0.227614 -0.361595
-0.095565 0.265269 -0.151606
0.140524 0.438872 0.062112
0.374206 -0.067642 0.225105
-0.068770 0.058782 0.140251
0.200596 0.287891 -0.261878
-0.134297 -0.035914 -0.165102
0.277383 0.352996 -0.328127
-0.086861 0.192701 0.184140
0.118122 -0.131478 -0.515333
0.297374 0.140725 -0.226701
0.170338 0.265479 0.343715
-0.056635 0.042373 -0.486338
-0.222375 -0.176899 -0.301909
0.085738 -0.189689 0.155173
-0.033083 -0.264053 -0.399104
0.051885 0.099409 -0.475079
0.281750 0.238542 0.422909
0.398100 0.307491 0.066103
-0.529330 -0.189576 -0.262504
0.488555 0.261546 -0.097439
-0.012597 -0.260876 -0.344636
0.368713 0.331921 -0.022957
0.039551 0.531868 -0.074516
0.141276 -0.200290 0.010928
0.029927 0.352238 -0.111736
0.517691 0.254139 0.106624
0.298863 0.411065 -0.189780
0.080103 0.450422 -0.176166
0.288615 0.415503 -0.195815
0.201517 -0.069571 0.326278
-0.021120 0.035593 0.228945
0.042894 -0.029734 0.301236
-0.125336 0.238721 -0.249257
0.328348 0.263129 0.412936
0.184318 0.464352 -0.108338
0.106904 0.241226 -0.413591
0.440418 0.149615 -0.096755
0.061728 0.521721 -0.017715
-0.125958 0.183445 -0.123139
0.302305 -0.121737 0.232259
-0.205460 -0.286044 -0.119710
0.088800 0.041436 0.344361
0.496483 0.278043 -0.086780
-0.128348 -0.238180 -0.267977
-0.052343 0.070717 0.163805
0.243930 0.113724 -0.345355
-0.173678 -0.264304 -0.021899
-0.158824 0.063999 -0.350172
-0.070441 -0.054331 -0.049709
-0.108871 0.247150 -0.328509
0.037537 0.367826 -0.156634
-0.227479 -0.344141 -0.125852
0.444638 0.100554 -0.082564
0.015197 0.498413 -0.034910
0.207026 0.265587 -0.293801
0.210933 -0.061922 0.330117
-0.511765 -0.183788 -0.281367
0.007859 0.330892 0.211062
0.021973 0.119003 -0.478050
0.298624 0.401325 -0.156857
0.499381 0.162141 0.005998
-0.093955 0.131000 0.053814
0.128803 -0.205387 0.029479
0.412955 0.006906 -0.100654
0.369900 0.275128 0.383532
0.305591 0.383641 0.139738
0.352798 0.269729 0.400135
0.395353 0.318422 -0.052718
-0.130556 -0.200069 -0.495340
-0.106838 -0.041529 -0.507666
0.024029 0.039244 -0.460147
0.459087 0.163796 0.360915
0.022895 0.247582 0.279582
0.309450 0.401460 -0.353966
0.128149 0.446877 0.045203
0.062216 -0.123410 -0.112770
-0.023902 0.312982 -0.155315
0.410888 0.102207 0.304736
-0.021768 0.388227 0.068371
0.363619 -0.046155 0.256865
-0.107835 0.269857 -0.299875
0.349660 -0.051859 -0.120230
0.243982 0.383989 0.101501
-0.097123 0.214992 -0.384736
0.274328 0.204259 0.434114
-0.524958 -0.123154 -0.224644
0.277566 -0.129570 0.249980
-0.157089 -0.119969 -0.232252
0.202628 0.176762 -0.398774
-0.042884 -0.106934 0.039160
0.116453 0.285318 -0.368337
-0.190241 -0.188193 -0.437254
-0.254299 -0.371738 -0.072373
0.300020 0.242220 -0.250585
-0.128524 0.231635 -0.232526
-0.003170 -0.108828 -0.538230
-0.143237 0.193394 -0.178365
-0.224600 -0.257313 -0.227865
0.036631 -0.199406 -0.512519
0.308600 0.173551 -0.229759
0.418480 0.299599 0.017684
-0.071712 -0.002709 0.146674
-0.052426 -0.013203 0.189030
-0.551258 -0.162049 -0.279588
-0.145665 0.103364 -0.341300
-0.079305 0.304445 -0.262067
-0.116391 0.196907 0.134145
0.153123 -0.039765 -0.307021
-0.233104 -0.240801 -0.212296
0.141613 -0.136641 -0.476025
-0.047089 0.316052 -0.276773
-0.270688 -0.116021 -0.351829
0.204392 -0.166274 -0.041704
0.098597 0.408073 0.204194
-0.198466 -0.183918 -0.187856
0.161254 -0.112642 -0.433943
-0.032190 0.140556 -0.461034
-0.034462 0.354476 0.017406
0.395392 0.329288 -0.219630
0.038446 0.318382 0.243056
0.139099 0.469017 0.128942
-0.082746 -0.026240 0.055818
0.034005 0.265384 0.281432
0.452087 0.303093 0.157565
0.486646 0.304778 -0.085550
0.386236 0.230310 0.414726
-0.357535 -0.133915 -0.332081
0.012775 -0.029144 -0.540017
-0.153528 -0.258504 -0.242337
-0.110965 0.188959 -0.377526
0.139632 -0.044629 -0.442163
-0.139187 0.034470 -0.115308
-0.479309 -0.092288 -0.235979
0.059917 0.131366 -0.475469
-0.132998 0.098052 -0.081749
0.046692 -0.147607 -0.058420
0.214580 0.180111 -0.382413
0.158024 0.345710 0.308893
0.114793 -0.032279 -0.400654
-0.140809 0.069817 -0.400582
0.426210 0.265093 0.330267
-0.542201 -0.156952 -0.265390
0.002522 -0.183241 -0.297920
0.048643 0.301626 0.269270
-0.576953 -0.196443 -0.237400
0.162790 0.414121 0.266690
-0.305321 -0.379594 -0.032350
-0.035202 -0.019846 0.212324
0.404929 -0.042107 0.193279
0.230475 0.442978 -0.109733
-0.016129 -0.231114 -0.316396
0.020409 -0.113866 -0.190430
-0.045461 -0.087866 -0.121930
0.198742 0.470158 -0.275380
0.025212 -0.117328 -0.173105
-0.106045 0.083631 0.036582
0.205271 0.420443 -0.060319
0.081619 0.209538 0.332687
0.083117 0.497742 -0.160408
-0.509740 -0.059721 -0.199412
0.035037 0.170517 0.308072
0.328390 0.199000 -0.199377
0.375873 0.086306 -0.147793
-0.050034 -0.102040 0.062450
-0.159424 -0.269367 -0.219611
0.270174 0.221688 0.424838
0.223445 -0.040483 -0.198771
0.297668 -0.012137 0.328216
-0.043685 0.135671 -0.455689
0.189654 0.295412 -0.270303
0.419921 0.330972 -0.203121
0.234393 -0.055136 0.329094
