0.34399590 0.28409269 0.37016693 -0.00021364 -0.00016321 -0.00021612
0.76134390 0.36004543 0.44163236 0.00028817 -0.00007095 -0.00003277
0.18471386 0.12224590 0.32566762 -0.00027324 0.00035018 -0.00029445
0.77873987 0.37223607 0.69164932 0.00031712 -0.00025580 -0.00001022
0.68728125 0.77495021 0.52127391 0.00001655 0.00029780 0.00004953
0.33308321 0.25303185 0.47779718 -0.00024203 -0.00024527 -0.00002653
0.40997821 0.54649210 0.74138188 -0.00015123 -0.00017119 -0.00013068
0.40738329 0.29001406 0.71956998 -0.00021859 -0.00021347 0.00033528
0.69448286 0.23680781 0.36570641 0.00031473 -0.00024125 -0.00017700
0.55888170 0.27380565 0.79655308 -0.00011275 -0.00029838 0.00043504
0.40609869 0.17610340 0.48354456 -0.00017291 -0.00020514 -0.00013287
0.75708741 0.75826561 0.52223516 0.00012460 0.00031449 0.00003144
0.55632472 0.78151494 0.65132725 -0.00020510 0.00006808 0.00019077
0.75591987 0.59445280 0.23996307 0.00039039 0.00015435 -0.00036568
0.38519219 0.19594494 0.51816720 -0.00023932 -0.00026515 -0.00004639
0.82566911 0.52747798 0.37104234 0.00036141 -0.00014962 -0.00008438
0.29023319 0.31534761 0.58206761 -0.00044139 -0.00012109 -0.00004529
0.72550684 0.26133066 0.61403501 0.00033306 -0.00014687 -0.00000593
0.30674380 0.63804996 0.48874891 -0.00014999 0.00073018 -0.00032444
0.32679051 0.45642403 0.57127196 -0.00025548 0.00011025 0.00002210
0.43556938 0.24146906 0.29334888 -0.00022655 -0.00029101 -0.00010089
0.73630363 0.28204647 0.65259957 0.00032210 -0.00020499 0.00002884
0.40674210 0.62037283 0.31110176 -0.00010405 0.00007677 -0.00018676
0.26564899 0.57154459 0.50101644 -0.00062509 0.00014488 -0.00012337
0.38758305 0.58470869 0.30460721 -0.00014886 0.00013441 -0.00012258
0.58969283 0.31081682 0.81919914 -0.00008484 -0.00024441 0.00047981
0.48065525 0.74545491 0.54025346 0.00000212 0.00005397 0.00000003
0.55709082 0.82701671 0.61411643 -0.00022067 0.00038358 -0.00000471
0.67949545 0.89734924 0.66930985 -0.00012578 -0.00001945 -0.00008647
0.34772378 0.53754205 0.56645459 -0.00015576 0.00005653 0.00001050
0.29101935 0.56998229 0.58266753 0.00001399 -0.00010400 0.00055743
0.74556369 0.75654602 0.56058788 0.00007610 0.00019447 0.00009785
0.34778178 0.50965148 0.59651518 -0.00023001 0.00007393 -0.00002413
0.85191035 0.58227551 0.44364405 0.00044231 -0.00011880 -0.00002517
0.41240251 0.07992332 0.34592843 0.00000709 -0.00065742 -0.00029724
0.77722442 0.37403032 0.58425653 0.00026686 -0.00012907 -0.00003356
0.43430704 0.18003759 0.62157106 -0.00025893 -0.00040643 0.00009601
0.31815046 0.45026517 0.43722200 -0.00029793 0.00007632 -0.00000601
0.77171904 0.51328903 0.25087240 0.00039138 0.00010635 -0.00024524
0.84978276 0.57200295 0.45300338 0.00040409 -0.00010411 -0.00000358
0.78465462 0.43286353 0.74553019 0.00024584 -0.00010378 0.00030884
0.37540248 0.24645928 0.63787985 -0.00026098 -0.00034985 0.00014574
0.69028431 0.74711871 0.63258296 0.00001822 0.00018225 0.00006691
0.48416680 0.22895730 0.73381692 -0.00017089 -0.00033725 0.00034037
0.30247623 0.38129649 0.53705418 -0.00035972 -0.00000398 0.00000063
0.49107951 0.47549725 0.81396246 -0.00017213 -0.00007531 0.00039425
0.34224737 0.43216100 0.27737015 -0.00031431 -0.00009193 -0.00030799
0.53121418 0.11152390 0.52000493 0.00007529 -0.00057043 -0.00001588
0.73503011 0.64034373 0.76058668 0.00012607 0.00029613 0.00033048
0.50266349 0.48502269 0.18444180 -0.00011237 0.00018435 -0.00045684
0.62233943 0.58754116 0.80901015 0.00001384 0.00017920 0.00036100
0.85270768 0.60873204 0.56791770 0.00021053 0.00026915 0.00016894
0.73344100 0.28575093 0.71656579 0.00045212 -0.00033292 -0.00000003
0.35716334 0.55612457 0.42193133 -0.00025594 0.00005202 0.00001975
0.46112484 0.27147388 0.75015575 -0.00026489 -0.00024690 0.00034294
0.41644597 0.51068300 0.78279120 -0.00033138 0.00014491 0.00029542
0.33617547 0.45408335 0.63203883 -0.00031950 0.00004701 0.00006641
0.34044197 0.52095330 0.44535133 -0.00021400 0.00008130 0.00000345
0.44276977 0.08729099 0.34292427 0.00014778 -0.00065329 -0.00029292
0.81383532 0.45630804 0.59748763 0.00028246 -0.00013948 -0.00004681
0.37986743 0.44914332 0.24721254 -0.00044785 -0.00001599 -0.00029443
0.43965188 0.47929090 0.21270704 -0.00028086 0.00004096 -0.00039067
0.80133027 0.50480402 0.28443560 0.00043042 -0.00008314 -0.00041176
0.46089846 0.72193348 0.56514543 -0.00026285 0.00016002 0.00003991
0.47278351 0.24550694 0.73910260 -0.00028515 -0.00028324 0.00028242
0.49913189 0.42470300 0.81717515 -0.00015107 -0.00012762 0.00039920
0.65509188 0.37311476 0.17914046 0.00030907 -0.00017043 -0.00048158
0.80543059 0.43319696 0.64709979 0.00031382 -0.00013209 -0.00000817
0.35787594 0.22386003 0.51063335 -0.00024891 -0.00024963 0.00000400
0.70669240 0.58556294 0.80352485 0.00004993 0.00020337 0.00042662
0.44143385 0.20534436 0.67172861 -0.00021433 -0.00030731 0.00031077
0.31306440 0.15130733 0.33394521 -0.00017870 0.00021035 -0.00011268
0.82945609 0.50995368 0.69649678 0.00048688 -0.00004563 0.00023167
0.55743426 0.48403916 0.16585255 -0.00001042 0.00002376 -0.00055655
0.38075063 0.61272418 0.52469409 -0.00018867 0.00004674 -0.00003156
0.33120757 0.39202183 0.71431768 -0.00050469 -0.00003200 0.00003291
0.73082495 0.52238178 0.20469257 0.00038521 0.00005975 -0.00040410
0.67395437 0.19122569 0.40557906 0.00036629 -0.00027343 -0.00015493
0.74162495 0.29290116 0.67061681 0.00033949 -0.00020760 0.00006888
0.71836227 0.86701763 0.67937618 -0.00026839 -0.00003048 -0.00003021
0.85588139 0.61836231 0.46885273 0.00043732 0.00025744 -0.00006269
0.67486316 0.68822306 0.73073465 0.00000974 0.00027244 0.00022125
0.74884212 0.68077952 0.28701827 0.00023103 0.00037305 -0.00039722
0.45470279 0.07940256 0.37535450 0.00013334 -0.00070157 0.00000676
0.71843135 0.37869599 0.80029768 0.00025371 -0.00020589 0.00039637
0.69708663 0.64599532 0.76713586 0.00011799 0.00021685 0.00034016
0.75088614 0.52718359 0.22454192 0.00036496 -0.00003377 -0.00039382
0.39370733 0.25393289 0.32871306 -0.00018151 -0.00025051 -0.00012032
0.62960559 0.62051117 0.79040539 0.00003525 0.00021648 0.00032070
0.61386663 0.53823340 0.82839227 -0.00003203 0.00007054 0.00042099
0.69673091 0.60439533 0.20533824 0.00005234 0.00018552 -0.00059809
0.68580151 0.63943940 0.77376425 0.00005784 0.00025703 0.00029608
0.83436269 0.66943091 0.45917228 0.00040052 0.00020509 0.00006870
0.63709372 0.43331626 0.84581959 0.00004691 -0.00005760 0.00050144
0.32374287 0.46932387 0.49793312 -0.00022541 0.00011943 -0.00000320
0.65741140 0.31727684 0.21085703 0.00031637 -0.00025585 -0.00037357
0.46572363 0.13177249 0.49936050 -0.00028310 -0.00022667 -0.00005156
0.33422846 0.25453171 0.45812851 -0.00024660 -0.00022585 -0.00006629
0.33085519 0.49660221 0.47551897 -0.00019172 0.00013743 0.00001013
0.54718286 0.13009755 0.62186325 0.00006743 -0.00056798 0.00025453
0.76970518 0.74627233 0.61725557 -0.00007020 0.00001171 -0.00001593
0.58509851 0.12426540 0.54958934 0.00018348 -0.00049649 0.00004748
0.77402735 0.41814378 0.31420520 0.00035707 -0.00015762 0.00005310
0.34585035 0.42801717 0.69526899 -0.00018582 0.00001275 0.00014684
0.72644585 0.27706739 0.48883030 0.00027569 -0.00014951 -0.00002174
0.26111931 0.09612842 0.39581159 -0.00025088 -0.00045327 0.00039585
0.34261757 0.47312313 0.63201427 -0.00029267 0.00008987 0.00003873
0.39391363 0.51934195 0.24178408 -0.00027714 0.00010972 -0.00041663
0.55132222 0.61378473 0.21675161 -0.00008208 0.00022372 -0.00040614
0.65894580 0.34014702 0.19787133 0.00028161 -0.00024836 -0.00041545
0.65529710 0.23385717 0.73873234 0.00023546 -0.00032787 0.00031211
0.31211874 0.42665893 0.40522110 -0.00032660 0.00006178 -0.00002513
0.79812646 0.59166270 0.73127770 0.00035299 0.00009275 0.00027904
0.75926524 0.50336438 0.23629317 0.00032844 0.00000035 -0.00034661
0.45015305 0.18872000 0.31574851 -0.00008530 0.00003048 -0.00009041
0.66671604 0.76980603 0.42327398 0.00003755 0.00037450 -0.00009990
0.78203511 0.39420974 0.51397765 0.00026939 -0.00008664 -0.00005050
0.66629452 0.69583833 0.72286403 0.00001264 0.00025542 0.00020853
0.54712158 0.62666893 0.22557899 -0.00007802 0.00027152 -0.00039102
0.43777734 0.61031556 0.72788435 0.00006768 -0.00010821 -0.00007188
0.62525994 0.18036766 0.34614366 0.00023720 -0.00034943 -0.00013717
0.77937889 0.79378587 0.59447116 -0.00008045 0.00021472 -0.00019353
0.45305017 0.37149563 0.21177925 -0.00025937 -0.00022125 -0.00036633
0.42576066 0.07342767 0.36960936 0.00003290 -0.00068693 -0.00015549
0.68783444 0.95232636 0.65832025 0.00024042 0.00080555 0.00021876
0.35642964 0.38000852 0.28200352 -0.00021838 -0.00024187 -0.00034036
0.63752973 0.64778280 0.22699633 -0.00004543 0.00035708 -0.00037317
0.29373246 0.29673386 0.51020736 -0.00032924 -0.00026762 -0.00001340
0.43685624 0.65233922 0.67353177 -0.00029218 0.00013544 0.00006765
0.38736111 0.29398394 0.29966387 -0.00022683 -0.00025285 -0.00021819
0.63590717 0.31730247 0.82013023 0.00012486 -0.00019322 0.00056766
0.75855160 0.62469399 0.75908124 0.00025956 0.00020372 0.00038475
0.70525724 0.77214563 0.51557446 0.00004619 0.00030425 0.00004363
0.67113644 0.72735971 0.31776243 0.00003985 0.00042827 -0.00022567
0.47900373 0.68716919 0.29458332 -0.00010400 0.00035443 -0.00026413
0.38661510 0.57256275 0.27669996 0.00037113 0.00014454 -0.00005021
0.73284441 0.76488394 0.46367517 0.00021892 0.00036054 0.00002171
0.80569601 0.45128328 0.49382386 0.00027831 -0.00009645 0.00001641
0.30175138 0.33289644 0.57556415 0.00001384 0.00016596 -0.00003704
0.33585542 0.38933548 0.69584775 0.00004555 0.00022182 -0.00017567
0.31783044 0.37402362 0.67002463 -0.00021557 0.00016313 -0.00033606
0.59522051 0.13652740 0.60240084 0.00011506 -0.00052353 0.00008304
0.74700660 0.33891034 0.38867813 0.00031067 -0.00009325 0.00003539
0.29978427 0.37915993 0.50340950 -0.00033399 0.00009729 0.00001808
0.66373867 0.69752997 0.27601528 -0.00010092 0.00034990 -0.00035493
0.76425099 0.79236299 0.61877877 -0.00017278 0.00012987 0.00011110
0.67840260 0.70505708 0.70888025 0.00001560 0.00026169 0.00015885
0.42339438 0.42633668 0.78389293 -0.00026961 -0.00006349 0.00034828
0.72005838 0.28271663 0.72851998 0.00012922 -0.00029402 0.00035035
0.46841779 0.39844611 0.80170161 -0.00027186 -0.00006982 0.00036037
0.74279368 0.35065940 0.75433969 0.00007551 -0.00012571 0.00030496
0.77959973 0.65911365 0.71290374 0.00031373 0.00025968 0.00020208
0.17248200 0.07813912 0.31706771 0.00012651 -0.00030954 -0.00066358
0.84221882 0.54806668 0.66428953 0.00044892 0.00000048 0.00023918
0.79130632 0.40696236 0.57298368 0.00024018 -0.00018109 -0.00003703
0.49660832 0.50381821 0.19018695 -0.00006529 0.00012480 -0.00048544
0.55269498 0.34308204 0.17398299 -0.00018125 -0.00011373 -0.00058196
0.61201215 0.13885801 0.57229340 0.00011939 -0.00047945 0.00005994
0.76028562 0.37323189 0.36547559 0.00026738 -0.00021024 0.00004880
0.80489427 0.77798772 0.62482172 0.00040104 0.00019190 -0.00001367
0.78922439 0.40203461 0.72409403 0.00046074 -0.00022657 -0.00007547
0.44129670 0.20155181 0.32857808 -0.00012974 -0.00003328 0.00005309
0.78287596 0.72728163 0.39687547 0.00029156 0.00041753 -0.00016902
0.62541044 0.21380153 0.73849154 0.00024480 -0.00038463 0.00030974
0.54523247 0.78575021 0.57499534 -0.00002613 0.00017265 -0.00003543
0.54175442 0.60205793 0.79115695 -0.00003372 0.00017037 0.00034428
0.50217283 0.14465559 0.63779515 -0.00017950 -0.00053836 0.00013198
0.81561846 0.68904716 0.40661722 0.00050016 0.00007826 -0.00006975
0.34285960 0.53984034 0.55401421 -0.00014327 0.00007103 -0.00000176
0.60835791 0.70085967 0.28127757 -0.00007892 0.00036894 -0.00025273
0.59526622 0.45653665 0.84200245 -0.00013053 -0.00005786 0.00044705
0.68494284 0.66622484 0.75133449 0.00008855 0.00031173 0.00020635
0.50247949 0.24363688 0.24033105 -0.00014634 -0.00033342 -0.00041779
0.39853138 0.61902016 0.59085149 -0.00023424 0.00007967 0.00000759
0.46989867 0.63607168 0.25616705 -0.00022078 0.00023266 -0.00034674
0.29810935 0.35560724 0.53530788 -0.00029816 -0.00001766 0.00001544
0.28303948 0.31063172 0.49174413 -0.00042806 -0.00030353 0.00008640
0.47742584 0.65440893 0.26658460 -0.00026514 0.00027684 -0.00030564
0.31591129 0.11702821 0.31591132 -0.00026398 0.00002891 -0.00065712
0.58311796 0.14023183 0.39526966 0.00014282 -0.00046742 -0.00007257
0.55362499 0.13671696 0.38078746 -0.00003580 -0.00041621 -0.00016543
0.72167087 0.26417091 0.51035458 0.00027599 -0.00015845 -0.00003736
0.56150788 0.76811999 0.40981320 -0.00014995 0.00036041 -0.00016015
0.57506561 0.85790145 0.61344624 -0.00028505 0.00036362 -0.00016372
0.69403899 0.33654740 0.22974735 0.00022508 -0.00018547 -0.00032596
0.81787205 0.67313087 0.63101733 0.00031585 0.00019356 0.00010468
0.54291642 0.42307714 0.83124030 -0.00014979 -0.00000295 0.00041378
0.70241588 0.21990798 0.56156033 0.00030542 -0.00022786 -0.00002780
0.51984876 0.41238302 0.82373101 -0.00019191 -0.00013689 0.00039413
0.32083794 0.46005601 0.48187971 -0.00025154 0.00010158 -0.00002458
0.52402937 0.20233129 0.26743209 -0.00009583 -0.00043680 -0.00034785
0.68355566 0.72317129 0.68143690 0.00001725 0.00021073 0.00015778
0.56712472 0.77397883 0.43188056 -0.00004626 0.00036915 -0.00008970
0.50906771 0.20454706 0.72766805 -0.00029137 -0.00029953 0.00038733
0.30511460 0.36402425 0.58394325 -0.00030826 -0.00000588 0.00008815
0.54389882 0.80002391 0.60727507 -0.00024641 0.00018190 -0.00006171
0.56112319 0.58797157 0.19948380 -0.00003880 0.00021604 -0.00044724
0.57693350 0.12374131 0.56949109 0.00016704 -0.00052527 0.00006492
0.77953279 0.84937066 0.67025995 0.00049045 0.00024889 0.00020666
0.44286677 0.52374566 0.21838751 -0.00026855 0.00007533 -0.00039489
0.74103290 0.44593510 0.22584774 0.00037460 -0.00012215 -0.00024641
0.81054235 0.70338881 0.60225701 0.00015263 0.00010809 0.00005904
0.76386070 0.34317127 0.59795934 0.00026710 -0.00015396 -0.00001840
0.49592251 0.77148879 0.43357444 -0.00010600 0.00031303 -0.00018735
0.83062029 0.55547893 0.34650052 0.00046302 -0.00017761 -0.00018840
0.59357792 0.48370126 0.15889189 -0.00007729 0.00006599 -0.00056554
0.79383987 0.66208220 0.69239312 0.00036446 0.00024088 0.00010966
0.57669932 0.76929533 0.41134205 0.00011179 0.00038257 -0.00013207
0.79692554 0.41986668 0.57158750 0.00028246 -0.00009387 -0.00000679
0.40295401 0.13659316 0.44771317 -0.00025642 0.00000481 0.00005514
0.74103624 0.74632925 0.38786185 0.00014972 0.00045142 -0.00015809
0.36320740 0.21986562 0.53653228 -0.00026105 -0.00029101 -0.00001934
0.85405368 0.57928246 0.47666201 0.00039747 -0.00015517 -0.00008322
0.47801682 0.27845687 0.76419973 -0.00022113 -0.00021293 0.00035398
0.41080230 0.35764235 0.75870657 -0.00019251 -0.00019191 0.00037382
0.80090874 0.73210126 0.52409524 0.00019259 0.00039838 0.00002170
0.72774047 0.53358334 0.81457919 0.00022478 0.00006696 0.00047482
0.48022035 0.10135724 0.44254789 0.00026584 -0.00025407 0.00016942
0.17400412 0.06923590 0.36595285 -0.00006004 -0.00063926 0.00038144
0.44493201 0.71144456 0.33211085 -0.00022349 0.00025286 -0.00043030
0.56564611 0.78191757 0.49841264 0.00002798 0.00032838 -0.00001706
0.79734254 0.73141766 0.45311153 0.00038312 0.00033757 -0.00010343
0.72207785 0.62337816 0.22626591 0.00024780 0.00017727 -0.00052161
0.36898264 0.54216093 0.63154930 -0.00025300 0.00009088 0.00001380
0.40834677 0.24906646 0.31607413 -0.00016777 -0.00024745 -0.00013789
0.73034543 0.76708621 0.48983389 0.00014893 0.00033981 0.00001743
0.51103586 0.34188220 0.80720592 -0.00016833 -0.00006101 0.00042035
0.57361150 0.69559073 0.27947664 -0.00011106 0.00036098 -0.00026464
0.71360731 0.77087659 0.50137997 0.00009678 0.00032000 0.00002889
0.82628244 0.59280348 0.67234522 0.00038094 0.00004744 0.00006900
0.56953013 0.13904983 0.64085168 0.00018348 -0.00057208 0.00016580
0.76761538 0.49889493 0.78308111 0.00039903 0.00001685 0.00024749
0.45485669 0.16737527 0.62755156 -0.00034127 -0.00036319 0.00010483
0.82703400 0.65733391 0.62209523 0.00035926 0.00012915 0.00007235
0.33877373 0.52299958 0.46417251 -0.00019154 0.00006553 0.00001770
0.40914410 0.12844826 0.30159864 -0.00016464 -0.00016213 -0.00067082
0.42837456 0.15182588 0.46338299 -0.00018897 -0.00000161 -0.00002858
0.80156219 0.60073876 0.30542687 0.00040116 0.00006683 -0.00024969
0.76584232 0.34634158 0.61107886 0.00026945 -0.00016543 0.00004031
0.56927031 0.33556050 0.82435989 -0.00010664 -0.00016452 0.00047319
0.61097842 0.67024606 0.24875923 0.00005230 0.00034117 -0.00032694
0.42819613 0.66574538 0.59756678 -0.00021729 0.00019147 0.00008725
0.68116033 0.44327217 0.84103012 0.00019923 -0.00002568 0.00053488
0.80934685 0.45134014 0.54907858 0.00026021 -0.00014610 -0.00004405
0.45887673 0.70493776 0.68619066 -0.00035268 0.00014676 -0.00002062
0.48345870 0.18806876 0.30707282 -0.00014702 -0.00013912 -0.00011126
0.66564441 0.28870937 0.78596598 0.00017103 -0.00028149 0.00040576
0.79250962 0.46359098 0.31040147 0.00037731 -0.00013583 -0.00012202
0.60919309 0.76990533 0.41129854 0.00002946 0.00038942 -0.00012432
0.76252699 0.48778600 0.78858763 0.00034437 -0.00010489 0.00033966
0.69345582 0.23144291 0.69494897 0.00014594 -0.00028247 0.00032244
0.60850614 0.13325223 0.50681180 0.00019169 -0.00043577 -0.00001280
0.42224243 0.20965658 0.34659529 -0.00013138 -0.00013339 0.00007237
0.76325518 0.34602714 0.56128490 0.00026333 -0.00012608 -0.00004478
0.42866671 0.58179939 0.77227217 -0.00006514 0.00011398 0.00043881
0.40387511 0.61049283 0.28511810 0.00012406 -0.00000299 0.00022457
0.49501926 0.30270651 0.21050911 -0.00030360 -0.00023436 -0.00037304
0.42449501 0.67743081 0.50403178 -0.00024059 0.00015947 0.00000796
0.17443347 0.09826612 0.37882927 -0.00069865 -0.00007815 0.00032798
0.55435318 0.14598037 0.35732061 -0.00005045 -0.00044072 -0.00014621
0.47310916 0.75935620 0.40401673 0.00001778 0.00040083 -0.00006988
0.64956528 0.89970773 0.69328070 0.00016425 -0.00020349 0.00015983
0.28755128 0.54192334 0.49657711 0.00008653 -0.00026480 0.00002585
0.61052233 0.37289399 0.83970195 0.00000644 -0.00001158 0.00054829
0.28554851 0.30738449 0.53113842 -0.00039665 -0.00009347 0.00010368
0.66109800 0.20385344 0.68394822 0.00025335 -0.00032345 0.00019123
0.49050745 0.75002027 0.58558804 0.00005519 -0.00022610 -0.00015558
0.71813697 0.55077749 0.81451339 0.00021528 0.00019883 0.00043309
0.79405290 0.40755451 0.63046646 0.00030925 -0.00009872 -0.00000556
0.81557047 0.69119483 0.60784382 0.00022019 0.00020791 0.00010982
0.83434707 0.58939898 0.35838890 0.00041602 0.00020820 -0.00027085
0.73358381 0.29786906 0.73347783 0.00037783 -0.00025370 0.00034874
0.71274644 0.93993944 0.64750570 0.00034672 0.00070698 0.00001355
0.75551730 0.73663539 0.61735255 0.00013535 0.00011138 0.00003583
0.37145266 0.57757086 0.58220696 -0.00018051 0.00005493 0.00001866
0.78168726 0.57274002 0.26716670 0.00046024 0.00006932 -0.00018670
0.43725097 0.45285562 0.79258764 -0.00016222 0.00003954 0.00039246
0.58051866 0.37380728 0.83543432 -0.00008353 -0.00011161 0.00047214
0.39857489 0.57742691 0.68564093 -0.00028009 0.00016986 0.00003215
0.51761180 0.67471552 0.73740983 -0.00009241 0.00027060 0.00024004
0.43836164 0.66401690 0.65230966 -0.00026356 0.00018217 0.00003722
0.58224487 0.29340184 0.81131297 -0.00013017 -0.00020029 0.00051615
0.43034273 0.68427658 0.52381980 -0.00025863 0.00014384 -0.00000323
0.19661677 0.07839113 0.36543545 -0.00029802 -0.00073643 0.00014665
0.30021027 0.33978906 0.52736366 -0.00015667 -0.00024066 -0.00012241
0.74701333 0.34692144 0.35330501 0.00032120 -0.00010272 -0.00005787
0.46750897 0.67507011 0.28651536 -0.00013244 0.00022416 -0.00038933
0.68998992 0.19597282 0.59435523 0.00034657 -0.00031592 -0.00005935
0.73334736 0.28499714 0.53496218 0.00025574 -0.00018434 -0.00003442
0.40629938 0.23178861 0.33917853 -0.00012697 -0.00024632 -0.00003922
0.35019270 0.23218337 0.48804969 -0.00024785 -0.00022840 -0.00009624
0.62023848 0.14476486 0.58525121 0.00022811 -0.00042895 0.00009210
0.64457065 0.72688806 0.68206805 0.00002070 0.00024991 0.00008190
0.54530054 0.80133414 0.62137592 -0.00023308 0.00020414 0.00015653
0.35965234 0.08342036 0.42548972 -0.00026936 -0.00033101 0.00048327
0.74197966 0.36319235 0.27030802 0.00041540 -0.00026085 -0.00000299
0.50487924 0.11890161 0.35683107 0.00019999 -0.00044995 -0.00012480
0.35195568 0.47362715 0.26456288 -0.00017388 -0.00006895 -0.00042452
0.44146729 0.17849760 0.31222472 -0.00008702 0.00008702 -0.00021789
0.71649659 0.70390517 0.70080227 0.00012405 0.00025251 0.00016587
0.52633774 0.51157844 0.18086332 -0.00025622 0.00013277 -0.00042757
0.76078182 0.88706213 0.67652369 0.00050852 0.00023647 0.00036400
0.27940190 0.33150920 0.43655628 -0.00047998 -0.00004893 -0.00003114
0.50269806 0.63971817 0.24715456 -0.00019115 0.00022162 -0.00038171
0.70998091 0.87937999 0.65283942 -0.00015384 -0.00000375 0.00001828
0.44185871 0.65099776 0.68999553 -0.00023433 0.00013514 0.00010848
0.81562960 0.49141127 0.40779147 0.00030035 -0.00012569 -0.00007240
0.35875246 0.15059923 0.32110113 -0.00018534 0.00025444 -0.00008679
0.27487895 0.54724032 0.56769574 -0.00038475 -0.00026790 0.00033296
0.42030099 0.64732897 0.32386890 -0.00013349 0.00021986 -0.00010884
0.57838982 0.65038329 0.76617801 -0.00005973 0.00024070 0.00028565
0.48324236 0.22493723 0.26772761 -0.00021561 -0.00027442 -0.00028470
0.84281874 0.58695126 0.37743759 0.00050467 -0.00004708 -0.00025726
0.34539318 0.30352387 0.34459028 -0.00028607 -0.00021514 -0.00013076
0.61981916 0.33441973 0.17959988 0.00004335 -0.00026800 -0.00059587
0.61795247 0.61451846 0.79386115 -0.00000522 0.00019230 0.00034210
0.80192012 0.44110548 0.50276387 0.00027171 -0.00009488 -0.00004435
0.50370950 0.14764078 0.32704929 0.00019519 -0.00013774 -0.00023129
0.46537682 0.13779528 0.56098151 -0.00025109 -0.00040726 0.00012088
0.29846734 0.13770160 0.39734048 -0.00012853 0.00014244 0.00006519
0.39550719 0.37897480 0.24977399 -0.00023183 -0.00008399 -0.00038942
0.67799449 0.21779704 0.68761027 -0.00000841 -0.00040975 0.00015223
0.63634324 0.77828443 0.53551418 0.00005773 0.00024510 0.00006394
0.50677609 0.75763440 0.62069237 -0.00002690 0.00021137 0.00004156
0.37146607 0.46211898 0.73474467 -0.00011279 -0.00005504 -0.00029850
0.34585482 0.29940686 0.66124523 -0.00033048 -0.00029858 0.00014606
0.56488335 0.68203187 0.26723474 -0.00013067 0.00032210 -0.00029231
0.36856449 0.39343470 0.26690799 -0.00031675 -0.00012761 -0.00030639
0.60263944 0.89128959 0.68047231 -0.00039583 0.00029016 0.00033539
0.35544604 0.11451133 0.30975914 -0.00011752 -0.00030921 -0.00065992
0.81558055 0.45769191 0.66453040 0.00033443 -0.00017639 0.00005606
0.20106503 0.12906940 0.32723439 -0.00019654 0.00016866 -0.00072163
0.74466372 0.82881546 0.65932727 -0.00020490 0.00006666 -0.00001440
0.74999964 0.55364901 0.22533701 0.00050473 0.00007706 -0.00024912
0.75314546 0.31952268 0.60403901 0.00027629 -0.00015184 -0.00005311
0.69042039 0.94896531 0.64583749 0.00013081 0.00062583 -0.00045736
0.77814108 0.37088677 0.64876473 0.00029734 -0.00015439 0.00001645
0.59470081 0.20688102 0.74657398 0.00005881 -0.00047998 0.00038316
0.16164179 0.06286626 0.32109782 0.00067188 -0.00061261 -0.00035604
0.73354590 0.61986995 0.77536774 0.00023053 0.00019389 0.00037033
0.80350590 0.65031308 0.33418167 0.00038361 0.00013914 -0.00031870
0.68089718 0.94420928 0.69158572 -0.00005006 0.00059350 0.00059692
0.73760831 0.29210272 0.54983801 0.00028317 -0.00012704 -0.00001891
0.53049046 0.29661116 0.79845548 -0.00011722 -0.00020916 0.00043124
0.72010410 0.76868534 0.52549803 0.00009385 0.00029206 0.00002177
0.59099752 0.80979913 0.61635005 0.00015141 0.00011018 0.00008699
0.61591625 0.71488363 0.29774469 0.00000048 0.00033132 -0.00033103
0.76836026 0.88534033 0.65595728 0.00044677 0.00044922 -0.00009061
0.79216051 0.61371666 0.29349273 0.00043098 0.00001152 -0.00029989
0.77973682 0.74514049 0.45566854 0.00015736 0.00046178 -0.00003915
0.49993140 0.24524379 0.75663799 -0.00023454 -0.00025187 0.00039658
0.70303249 0.36028630 0.80431879 0.00031571 -0.00016038 0.00037080
0.63781077 0.76358247 0.60365540 0.00002698 0.00016455 0.00007897
0.33770654 0.39943635 0.72326666 -0.00030834 0.00007162 0.00035016
0.58618575 0.74911481 0.35846919 -0.00000057 0.00031351 -0.00030250
0.34988156 0.34907365 0.70681620 -0.00034018 -0.00010831 0.00029957
0.48264354 0.74829292 0.48721001 -0.00001839 0.00005407 0.00001298
0.48979262 0.11454144 0.45388320 -0.00005518 -0.00020362 0.00012099
0.30579704 0.32130355 0.38926134 -0.00027295 -0.00026022 -0.00015980
0.53609848 0.78381437 0.60799998 -0.00015631 0.00019683 -0.00009315
0.48886707 0.77966273 0.50520378 -0.00019965 0.00025957 0.00003605
0.77428502 0.40451357 0.36572424 0.00028084 -0.00015112 -0.00007977
0.29956236 0.33315071 0.38548216 -0.00035820 -0.00022770 -0.00010280
0.59127522 0.12520657 0.51916522 0.00020675 -0.00047301 0.00004284
0.32231885 0.41630939 0.29838818 -0.00028679 0.00007989 -0.00028028
0.67919880 0.35854223 0.20310465 0.00026052 -0.00020848 -0.00041768
0.49837247 0.55679256 0.20476061 -0.00025924 0.00019033 -0.00038546
0.60294616 0.59435904 0.19561541 -0.00009853 0.00023319 -0.00043165
0.55365062 0.12450292 0.42213988 0.00000838 -0.00046088 -0.00015823
0.74383855 0.32418951 0.42946848 0.00027367 -0.00013066 -0.00000223
0.30407420 0.28780276 0.54454339 -0.00038650 -0.00020686 0.00000971
0.43343613 0.53323764 0.22504039 -0.00021937 0.00010019 -0.00041820
0.67185009 0.34348688 0.20570514 0.00026279 -0.00028526 -0.00037333
0.72370934 0.31459269 0.29606310 0.00042175 -0.00012843 -0.00005591
0.31455308 0.54805213 0.54334462 -0.00007471 -0.00002165 0.00004277
0.40802673 0.52934694 0.23676264 -0.00024853 0.00012944 -0.00040174
0.71334749 0.25620776 0.45151466 0.00031599 -0.00010380 -0.00003286
0.28951502 0.61554438 0.55379897 -0.00047218 0.00046779 0.00002346
0.61240464 0.75941527 0.38039827 0.00003043 0.00035165 -0.00022318
0.41922268 0.66202414 0.55357814 -0.00026992 0.00008041 0.00000739
0.59802842 0.89881891 0.65743148 -0.00028698 0.00041607 0.00015273
0.37789255 0.55209893 0.65014970 -0.00027098 0.00008545 0.00006037
0.63001263 0.53119248 0.16723196 0.00005678 0.00021215 -0.00053309
0.63564181 0.24721088 0.76966608 0.00011444 -0.00045746 0.00031927
0.68939674 0.76232469 0.58914977 0.00001068 0.00019547 0.00003138
0.31580985 0.39834467 0.36110651 0.00009557 -0.00002091 0.00019205
0.59909558 0.27451041 0.80274767 -0.00006474 -0.00038426 0.00048980
0.80023187 0.72551417 0.44089416 0.00038007 0.00032407 -0.00012746
0.73920625 0.92031646 0.64504576 0.00035183 0.00060591 -0.00031476
0.73632699 0.55891019 0.21268025 0.00032275 0.00007193 -0.00048190
0.55271953 0.51723439 0.82471907 -0.00007726 0.00003594 0.00040617
0.77390134 0.87207699 0.66234922 0.00051594 0.00026581 0.00015575
0.80022401 0.70798653 0.63839060 0.00010228 0.00004572 0.00010318
0.71159786 0.77063572 0.47042507 0.00008444 0.00037268 -0.00001323
0.36234653 0.58011222 0.55776882 -0.00016506 0.00005101 -0.00003757
0.64018261 0.24491817 0.26253223 0.00027777 -0.00029188 -0.00028245
0.79971331 0.79047388 0.64712209 0.00038014 0.00017900 0.00023130
0.37701604 0.58994985 0.57710296 -0.00020949 0.00003525 -0.00002807
0.40763643 0.14356944 0.30312413 -0.00025261 0.00021175 -0.00048950
0.19051144 0.13584605 0.34075645 -0.00069338 0.00025353 -0.00009192
0.65102726 0.32571948 0.20088106 0.00025065 -0.00022577 -0.00045820
0.59668022 0.72651225 0.31711233 0.00000309 0.00036527 -0.00022961
0.36500946 0.22379757 0.44323927 -0.00012963 -0.00024431 -0.00008382
0.32469630 0.26342490 0.54185367 -0.00028863 -0.00029935 0.00001055
0.41896731 0.36580509 0.76654601 -0.00015014 -0.00012334 0.00039733
0.82135916 0.70199829 0.55180067 0.00034582 0.00018784 0.00001590
0.74756193 0.33388111 0.42060101 0.00027488 -0.00011919 -0.00005344
0.55448478 0.12535377 0.60568607 0.00000051 -0.00061758 0.00008042
0.74641782 0.64782631 0.25713831 0.00025067 0.00021062 -0.00054050
0.59676719 0.51581705 0.83318287 -0.00003860 0.00006389 0.00043261
0.80895782 0.72324818 0.48868868 0.00034552 0.00032519 0.00008073
0.38563603 0.26874518 0.32459262 -0.00022938 -0.00020797 -0.00014143
0.69307888 0.20331149 0.55237830 0.00035383 -0.00019479 -0.00002497
0.69420958 0.54399085 0.82347459 0.00000943 0.00012556 0.00048505
0.29230174 0.09947044 0.33233055 -0.00009480 -0.00041125 -0.00050464
0.77491498 0.86591703 0.62292713 0.00040128 0.00048847 -0.00029798
0.69300300 0.76719111 0.57009661 0.00006122 0.00021105 0.00006649
0.51728284 0.78061390 0.48713532 -0.00004711 0.00036131 -0.00002883
0.84889501 0.59034127 0.40606299 0.00055680 -0.00005848 -0.00003132
0.54495484 0.76587522 0.64355141 -0.00003201 0.00011919 0.00014916
0.58858663 0.46377274 0.15709096 -0.00007288 0.00006635 -0.00056895
0.30296016 0.37721848 0.55089849 -0.00035111 0.00004874 -0.00000232
0.46801746 0.41955888 0.80363190 -0.00015375 -0.00005694 0.00038816
0.80575955 0.44573882 0.53056520 0.00025074 -0.00015469 -0.00002006
0.60188121 0.13162862 0.47950557 0.00023851 -0.00041369 -0.00005702
0.30661559 0.40340957 0.39924845 -0.00029583 -0.00002163 -0.00006818
0.75900990 0.33376405 0.58576423 0.00026242 -0.00016202 -0.00000160
0.54756314 0.37125364 0.16929051 -0.00011860 -0.00018640 -0.00053786
0.16901840 0.09173478 0.32465062 -0.00064640 -0.00013111 0.00013979
0.30723447 0.30761418 0.40854642 -0.00028983 -0.00021914 -0.00008991
0.75959313 0.89642477 0.66616631 0.00039765 0.00051936 0.00015730
0.82225347 0.68864012 0.58763766 0.00027959 0.00023683 0.00001449
0.65929592 0.66774476 0.75328594 -0.00002558 0.00028174 0.00024150
0.70207018 0.24772161 0.38012061 0.00036219 -0.00011936 -0.00003898
0.61072528 0.74457294 0.65313381 -0.00000061 0.00021230 0.00002343
0.59424371 0.16623673 0.34132630 0.00016307 -0.00046735 -0.00009551
0.73489404 0.75574535 0.57845002 0.00006528 0.00016565 0.00008866
0.73220432 0.27506575 0.61220616 0.00031388 -0.00015103 0.00006769
0.28156191 0.53767473 0.55092859 0.00023628 -0.00037893 -0.00005504
0.77439761 0.42650172 0.75526863 0.00030856 -0.00015054 0.00020056
0.57676399 0.23854408 0.77795929 0.00006246 -0.00049718 0.00038190
0.81070852 0.44571987 0.64509255 0.00032685 -0.00011670 0.00004227
0.34447095 0.49511909 0.31958345 -0.00031288 0.00011405 -0.00009959
0.58904934 0.15352421 0.66256666 0.00016441 -0.00052690 0.00018583
0.66361493 0.52704531 0.83248925 0.00007932 0.00011345 0.00044460
0.23542002 0.15500845 0.35973263 -0.00011773 0.00040696 -0.00003817
0.66671824 0.18533224 0.64127994 0.00014692 -0.00044617 0.00020739
0.73530328 0.89498407 0.62333077 -0.00023356 -0.00006772 -0.00037930
0.55986303 0.71365583 0.70081013 0.00008230 0.00026875 0.00016075
0.73940367 0.30598164 0.48013672 0.00025929 -0.00014200 -0.00006585
0.83072847 0.67074782 0.58522117 0.00034457 0.00020485 0.00000609
0.82948506 0.51801831 0.44328386 0.00028655 -0.00017011 -0.00008655
0.37290791 0.34371322 0.28314874 -0.00022177 -0.00014149 -0.00034994
0.23391345 0.09188197 0.34131068 -0.00014609 -0.00048005 -0.00053057
0.38678685 0.21653695 0.60626143 -0.00032805 -0.00027543 0.00011707
0.77689880 0.49970785 0.25683388 0.00042046 0.00004469 -0.00021525
0.76866025 0.47869879 0.77946252 0.00037132 -0.00004282 0.00027597
0.70371383 0.50424534 0.18332443 0.00024572 0.00005840 -0.00054785
0.69401556 0.77274668 0.46281761 0.00004695 0.00036897 0.00002865
0.47634080 0.52248216 0.20257162 -0.00020360 0.00007436 -0.00044847
0.83152241 0.68167496 0.55292362 0.00038316 0.00013317 0.00012363
0.76594824 0.70055860 0.32592073 0.00023208 0.00044215 -0.00026693
0.70673478 0.72819602 0.32942116 0.00013354 0.00039075 -0.00024633
0.61236006 0.56489170 0.81907541 -0.00003568 0.00012376 0.00041051
0.77016234 0.70670414 0.33890310 0.00027458 0.00037922 -0.00032467
0.32138103 0.43028313 0.34532851 -0.00011204 0.00011693 0.00007266
0.34287852 0.54749572 0.47767562 -0.00016248 0.00006957 0.00002577
0.34355098 0.31486031 0.33696502 -0.00022576 -0.00020070 -0.00023756
0.64946276 0.74233484 0.65439385 0.00002910 0.00021041 0.00007424
0.71566135 0.28705227 0.33153099 0.00024541 -0.00034975 -0.00015065
0.68447226 0.76374644 0.40600279 0.00006112 0.00038636 -0.00014760
0.51421070 0.41356507 0.17525201 -0.00013164 -0.00003590 -0.00052952
0.47769901 0.76872772 0.53631151 -0.00036725 0.00010032 0.00004078
0.50415665 0.76687437 0.59601450 0.00001082 0.00023408 0.00004980
0.64299053 0.94637489 0.64645970 -0.00039327 0.00061139 -0.00026886
0.40952438 0.17844182 0.44595462 -0.00009458 -0.00008599 -0.00015835
0.84499437 0.56706959 0.41996646 0.00040205 -0.00013332 -0.00005424
0.64318341 0.18848805 0.67910850 0.00026292 -0.00041917 0.00009310
0.55682653 0.77741128 0.55398631 -0.00000948 0.00015660 0.00004358
0.83684272 0.59712130 0.63938081 0.00033621 0.00007958 0.00012670
0.60698068 0.64580792 0.22804122 -0.00005884 0.00023964 -0.00042704
0.76139963 0.78972459 0.64664149 -0.00017210 0.00012790 -0.00002589
0.36623606 0.55707133 0.27864587 -0.00045570 0.00008437 -0.00009281
0.31977078 0.40938333 0.61633003 -0.00032978 0.00014582 0.00004222
0.76799566 0.57254601 0.24849719 0.00036047 -0.00001910 -0.00039433
0.36349732 0.28429011 0.33819276 -0.00021619 -0.00023963 -0.00016387
0.63415307 0.69400722 0.72735244 0.00000457 0.00028398 0.00017613
0.59261328 0.82813752 0.59974128 0.00024025 0.00004699 0.00002867
0.82140374 0.49064294 0.48093295 0.00031164 -0.00006043 0.00002800
0.73465431 0.50638080 0.20852862 0.00036507 -0.00001900 -0.00040289
0.62833208 0.93363005 0.67347819 -0.00040455 0.00050929 0.00015825
0.43835053 0.57938623 0.23771274 -0.00004201 0.00018335 -0.00048357
0.67353284 0.52935696 0.17155644 0.00002502 0.00010891 -0.00064622
0.63161170 0.18346997 0.68375868 0.00021018 -0.00043909 0.00017858
0.56768233 0.72602493 0.32026923 -0.00001130 0.00034008 -0.00027730
0.72912323 0.33249280 0.27890345 0.00041434 -0.00020034 -0.00007620
0.34146565 0.14772220 0.32143348 -0.00016387 0.00028129 -0.00016619
0.33085629 0.54099339 0.53224909 -0.00013024 0.00003041 -0.00001632
0.50897622 0.11285760 0.38256386 0.00015872 -0.00042545 -0.00009126
0.47947097 0.34379241 0.20307563 -0.00027681 -0.00011669 -0.00042972
0.14604667 0.06070402 0.31324396 -0.00017840 0.00073576 -0.00141546
0.42952645 0.42849445 0.21762252 -0.00016606 0.00004592 -0.00045836
0.44635159 0.12129246 0.30897522 -0.00002001 -0.00035660 -0.00059098
0.56924576 0.11725569 0.51605958 0.00004162 -0.00054550 -0.00000846
0.38615566 0.61578190 0.43988943 -0.00026432 0.00005876 0.00001791
0.52788442 0.26947334 0.21232343 -0.00015646 -0.00036239 -0.00047336
0.65406370 0.63666946 0.21848454 -0.00002773 0.00027830 -0.00046905
0.85523015 0.59223926 0.45215362 0.00047267 -0.00016908 -0.00003003
0.81690305 0.63168699 0.35205051 0.00039578 0.00006680 -0.00021569
0.48475224 0.64659184 0.25800589 -0.00004708 0.00026776 -0.00040078
0.51220006 0.11444221 0.53494769 -0.00019589 -0.00053795 0.00009036
0.67470706 0.68627048 0.26498550 -0.00001000 0.00028537 -0.00043084
0.78997707 0.75558031 0.58011162 0.00000422 0.00021315 -0.00013706
0.64342427 0.14610972 0.47643226 0.00007135 -0.00061456 0.00005198
0.38687718 0.60603786 0.36514661 -0.00032513 0.00012723 0.00001612
0.66678405 0.77815282 0.48789024 0.00002024 0.00033951 0.00003742
0.67641097 0.55683827 0.17984299 0.00024937 0.00009585 -0.00057251
0.37940243 0.51489705 0.71535921 -0.00025522 0.00014522 0.00007535
0.32767928 0.36795619 0.31659490 -0.00035679 -0.00011797 -0.00023561
0.39870203 0.36600247 0.25127608 -0.00022763 -0.00014789 -0.00037423
0.72504526 0.76172578 0.56460905 0.00006056 0.00020405 0.00009902
0.79930961 0.71766812 0.41393027 0.00039592 0.00029140 -0.00020854
0.67625713 0.65167236 0.23275040 0.00007236 0.00033123 -0.00041191
0.33351251 0.55809498 0.49322501 -0.00011821 0.00003414 -0.00001975
0.40090549 0.19281141 0.58024096 -0.00028853 -0.00031986 0.00004626
0.42799428 0.61181319 0.71694934 -0.00011029 0.00010418 0.00006111
0.28715542 0.33438626 0.46431080 -0.00002791 0.00027406 0.00029087
0.38526353 0.57058895 0.64498216 -0.00027806 0.00007242 0.00003138
0.80774450 0.59832782 0.31693837 0.00040220 -0.00001791 -0.00020423
0.72128499 0.41186896 0.21656205 0.00036023 -0.00022243 -0.00026037
0.77406305 0.63064545 0.74142766 0.00028246 0.00021776 0.00034528
0.79657537 0.41504818 0.61040413 0.00027863 -0.00013946 0.00002779
0.61882895 0.30673549 0.81779742 0.00001828 -0.00035077 0.00049353
0.73850822 0.32269967 0.37956080 0.00027543 -0.00016400 -0.00008349
0.42804557 0.12882294 0.46273956 -0.00023165 0.00005121 0.00014921
0.80724382 0.74994224 0.59672153 0.00033745 0.00011958 -0.00024992
0.51126450 0.77863681 0.46712652 -0.00009715 0.00039153 -0.00002428
0.73251545 0.92651659 0.66631466 0.00024273 0.00064190 0.00019900
0.56479973 0.11744416 0.54083335 0.00000838 -0.00055712 -0.00002728
0.33132130 0.45357040 0.60603619 -0.00029267 0.00010529 -0.00001235
0.46434978 0.73535520 0.46426731 -0.00006127 0.00026785 -0.00006434
0.67615116 0.49187180 0.16775051 0.00025761 0.00007284 -0.00059416
0.67720723 0.74096882 0.34454903 -0.00002002 0.00041677 -0.00018210
0.48626548 0.24030486 0.25325990 -0.00026927 -0.00023127 -0.00032625
0.48666134 0.77831119 0.52290761 -0.00020661 0.00035473 -0.00012764
0.82520527 0.52728504 0.69469023 0.00020955 0.00002549 0.00030221
0.34305581 0.48712915 0.60990345 -0.00025473 0.00009858 0.00001117
0.55556309 0.71056247 0.30129531 -0.00008779 0.00029360 -0.00031612
0.45615694 0.55099833 0.22010370 -0.00018055 0.00020347 -0.00038931
0.53175837 0.12256707 0.42094222 -0.00007688 -0.00034433 -0.00014585
0.70905089 0.76731372 0.43764466 0.00014028 0.00039078 -0.00007305
0.32854575 0.61926109 0.50224984 0.00010026 0.00003052 -0.00007144
0.44140711 0.14753932 0.48186186 -0.00015423 -0.00014024 -0.00006152
0.78066576 0.39488661 0.49000007 0.00023593 -0.00016559 -0.00002480
0.67577320 0.18556865 0.45006722 0.00036064 -0.00024664 -0.00009541
0.44697717 0.15868618 0.59261668 -0.00025260 -0.00039172 0.00011305
0.24769425 0.10730425 0.39908564 -0.00025446 -0.00020540 0.00050512
0.56343699 0.77176088 0.64579177 0.00013982 -0.00003773 0.00002209
0.47002357 0.10321397 0.33825299 0.00022738 -0.00065125 -0.00010595
0.37616298 0.40126514 0.75085497 -0.00030236 -0.00022093 0.00027461
0.54395795 0.43472135 0.16522695 -0.00014955 0.00003141 -0.00052544
0.50306940 0.18629237 0.29605976 -0.00019490 -0.00027968 -0.00019845
0.77786231 0.64793229 0.29015514 0.00045096 0.00018365 -0.00027279
0.37713981 0.51913679 0.25127387 -0.00031618 0.00010915 -0.00037578
0.61266673 0.63389611 0.78101146 0.00004649 0.00024316 0.00029820
0.76983672 0.66371471 0.29184791 0.00040822 0.00029131 -0.00029763
0.75930768 0.79915971 0.63355541 -0.00011252 0.00004713 0.00001430
0.19227000 0.12445386 0.36008060 -0.00020941 -0.00019237 -0.00030854
0.62646979 0.41677329 0.15638062 0.00025904 0.00000617 -0.00063401
0.57898420 0.17910534 0.71525997 0.00018210 -0.00054080 0.00028806
0.61215270 0.18938015 0.31455979 0.00022896 -0.00037514 -0.00021330
0.49697074 0.10264970 0.42066675 0.00023351 -0.00032533 0.00023473
0.34871960 0.23350143 0.50486809 -0.00026146 -0.00024267 -0.00002116
0.74360102 0.32749140 0.40894115 0.00027756 -0.00012802 -0.00006322
0.39041993 0.23118532 0.36334568 -0.00010437 -0.00023901 -0.00007087
0.73828292 0.57828110 0.21883468 0.00032684 0.00000918 -0.00048930
0.31807801 0.43224907 0.55748111 -0.00031512 0.00001279 -0.00002009
0.80849499 0.44081220 0.67923677 0.00033438 -0.00021787 -0.00005518
0.76217580 0.33661985 0.69379932 0.00035703 -0.00019975 0.00002254
0.83472508 0.52987993 0.45001817 0.00035351 -0.00003349 -0.00007177
0.83794338 0.52686799 0.51036793 0.00029491 -0.00017076 0.00002761
0.71287799 0.61789286 0.78372240 0.00001232 0.00022125 0.00039937
0.74673116 0.50982207 0.22118537 0.00037680 -0.00004076 -0.00033981
0.45520237 0.40247953 0.20450301 -0.00024480 0.00000063 -0.00044637
0.65930378 0.17577444 0.38735220 0.00042983 -0.00042137 -0.00016347
0.17932890 0.09683652 0.35326713 -0.00037138 0.00023021 -0.00026390
0.38607091 0.46079201 0.24307875 -0.00026575 0.00009339 -0.00039664
0.66585964 0.27403423 0.25477982 0.00018484 -0.00039175 -0.00021105
0.65287834 0.60862607 0.20089778 -0.00009924 0.00027346 -0.00046979
0.24894209 0.08728986 0.37354913 -0.00019431 -0.00062971 0.00002687
0.38232407 0.06843410 0.38488221 -0.00017524 -0.00074960 0.00002985
0.55210733 0.67216629 0.74449646 -0.00003031 0.00034029 0.00016925
0.55477250 0.28783175 0.80253351 -0.00012648 -0.00015917 0.00048886
0.56792545 0.84775710 0.61981142 -0.00032914 0.00026712 0.00006246
0.44851160 0.18785131 0.65612793 -0.00031037 -0.00032778 0.00021737
0.57959753 0.73029363 0.32517251 -0.00007648 0.00032968 -0.00026798
0.46637821 0.58890051 0.23102082 -0.00026115 0.00004479 -0.00042376
0.15537366 0.07531783 0.31777918 -0.00052814 0.00035590 -0.00040545
0.72922808 0.67259115 0.73378450 0.00008251 0.00031627 0.00025678
0.53575170 0.76985508 0.41943121 0.00013388 0.00039618 -0.00010149
0.32243034 0.44917232 0.55299830 -0.00025710 0.00012647 -0.00002201
0.62966806 0.15039741 0.44092649 0.00008299 -0.00038410 -0.00004262
0.32829931 0.41548866 0.64994895 -0.00037317 -0.00002268 0.00007174
0.33390728 0.48707789 0.56136179 -0.00020830 0.00008316 0.00001604
0.52202213 0.34970373 0.81373608 -0.00011640 -0.00017196 0.00041856
0.67108178 0.65809667 0.76114315 0.00004755 0.00022197 0.00032023
0.46191323 0.42897394 0.19936670 -0.00023811 -0.00005306 -0.00042562
0.31059551 0.38956186 0.58984226 -0.00034582 0.00006048 0.00002051
0.51979303 0.36568242 0.81707150 -0.00008423 -0.00013418 0.00045320
0.38349387 0.53887129 0.25134075 -0.00028299 0.00000160 -0.00044698
0.61439967 0.14146520 0.45227852 0.00023196 -0.00037382 -0.00007623
0.48905107 0.66451979 0.74181235 -0.00013538 0.00027272 0.00028067
0.53447038 0.50084305 0.17545941 -0.00009565 0.00004672 -0.00052830
0.68254644 0.71975452 0.30855703 0.00005897 0.00037589 -0.00029927
0.57548374 0.80992627 0.58356410 0.00023055 0.00008559 -0.00012161
0.37089843 0.52985209 0.66159320 -0.00031947 0.00000476 0.00006728
0.47401130 0.32925108 0.78563374 -0.00013042 -0.00020639 0.00038548
0.79932410 0.46303898 0.73433208 0.00017288 0.00005253 0.00040053
0.30922720 0.35012192 0.66449690 -0.00041579 0.00008278 0.00050673
0.65340698 0.92413688 0.70473868 -0.00004747 0.00038803 0.00066027
0.42507485 0.33104870 0.75704503 -0.00030285 -0.00011507 0.00031785
0.41957727 0.67012447 0.41015109 -0.00026463 0.00020890 -0.00006579
0.80433661 0.72455853 0.63603324 0.00022642 0.00007371 0.00017186
0.58291507 0.67898196 0.26078928 -0.00005705 0.00028564 -0.00035411
0.26791829 0.57729310 0.51540166 -0.00055706 0.00020958 0.00007682
0.72399813 0.39355737 0.80142838 0.00033032 -0.00007992 0.00035572
0.70175463 0.89079559 0.64701617 -0.00014577 -0.00005301 0.00001198
0.61550587 0.90915734 0.68617064 -0.00038229 0.00022851 0.00040048
0.55040669 0.15374056 0.67750156 0.00005687 -0.00051611 0.00035439
0.56408942 0.31438974 0.81576788 -0.00000949 -0.00022511 0.00046712
0.33815816 0.58793813 0.49657044 -0.00007212 0.00005377 -0.00005413
0.63728213 0.38803634 0.16545780 0.00027555 -0.00010964 -0.00058689
0.75886160 0.58819240 0.77802849 0.00032054 0.00019081 0.00037865
0.82391053 0.62448883 0.36526260 0.00042485 -0.00002270 -0.00013482
0.79981697 0.79608637 0.60651124 0.00043886 0.00020467 -0.00016843
0.51709217 0.12492445 0.59900087 -0.00000052 -0.00061693 0.00011450
0.40460438 0.18544151 0.40280014 -0.00012851 -0.00004132 -0.00010917
0.76992041 0.35256848 0.68086261 0.00033904 -0.00015961 0.00005640
0.82129675 0.62222964 0.67112309 0.00040793 0.00007386 0.00010147
0.71378130 0.29786235 0.74508303 0.00012592 -0.00020786 0.00030507
0.34332013 0.09174817 0.33130464 -0.00035840 -0.00050567 -0.00038836
0.34178567 0.12255590 0.30955955 -0.00035614 -0.00005572 -0.00061075
0.63316172 0.15493265 0.59883356 0.00016345 -0.00041884 0.00009300
0.38205308 0.30987346 0.29467478 -0.00025031 -0.00019867 -0.00023895
0.65203422 0.50003016 0.84002417 0.00002679 -0.00001955 0.00050296
0.39021587 0.51899850 0.73349231 -0.00013963 -0.00008242 0.00010716
0.70544565 0.28189147 0.73839790 0.00015254 -0.00024518 0.00029053
0.30276388 0.35303795 0.57069880 -0.00025895 -0.00020708 0.00002326
0.35924974 0.48371688 0.68845445 -0.00028603 0.00023749 0.00001486
0.53311437 0.13992965 0.36757761 0.00003231 -0.00019787 -0.00014478
0.26709309 0.54013133 0.49387294 -0.00014473 -0.00064860 -0.00015136
0.58932924 0.64495933 0.77160865 -0.00003515 0.00021885 0.00031298
0.42285240 0.22099635 0.33046493 -0.00011344 -0.00025216 0.00001253
0.76916319 0.67639595 0.30216622 0.00041403 0.00028966 -0.00026850
0.72998083 0.31322888 0.34323874 0.00029400 -0.00020804 -0.00006065
0.49125233 0.19823429 0.29002914 -0.00019147 -0.00026621 -0.00017857
0.33293155 0.47007880 0.33466560 -0.00032556 0.00007457 0.00001239
0.77018571 0.37071392 0.49447510 0.00027474 -0.00008205 -0.00002776
0.84821260 0.55828124 0.64309090 0.00049562 0.00009666 0.00016750
0.53136808 0.77784061 0.54971761 0.00001754 0.00022965 0.00000736
0.42619333 0.66576761 0.29304668 -0.00044253 0.00041414 -0.00015133
0.38554233 0.47928646 0.76979661 -0.00015791 0.00011467 0.00038262
0.63009739 0.54091531 0.82867110 0.00001289 0.00010444 0.00042399
0.28262353 0.60125619 0.55712539 -0.00055330 0.00021473 0.00023235
0.49022308 0.34839121 0.19669151 -0.00022290 -0.00003927 -0.00046923
0.33155215 0.41545746 0.66276628 -0.00033800 0.00009116 0.00011532
0.48883030 0.72866333 0.67288160 -0.00020004 0.00019873 0.00021254
0.51032889 0.27651429 0.21562311 -0.00024749 -0.00030250 -0.00040548
0.35694814 0.29967782 0.33286801 -0.00022562 -0.00016103 -0.00024662
0.74114323 0.33660981 0.34413642 0.00028335 -0.00021145 -0.00004772
0.38482085 0.20528640 0.43521589 -0.00006840 -0.00022522 -0.00013510
0.45880648 0.12283915 0.46741644 -0.00008327 -0.00010170 0.00016183
0.67000341 0.67865747 0.74099946 0.00002082 0.00025900 0.00022977
0.85966837 0.60658211 0.48025158 0.00053466 -0.00003432 -0.00005158
0.37577936 0.23324496 0.38989472 -0.00011467 -0.00023640 -0.00004725
0.79661661 0.51159406 0.74241120 0.00034141 0.00005373 0.00021418
0.69299525 0.22128408 0.68606025 0.00024122 -0.00048691 0.00024373
0.42672527 0.40330249 0.22228824 -0.00028094 -0.00000567 -0.00038387
0.67788965 0.39488214 0.18501943 0.00034249 -0.00018553 -0.00043812
0.57247740 0.78135097 0.48230341 0.00000424 0.00034590 0.00000356
0.78362972 0.48371798 0.75881368 0.00033984 0.00004543 0.00025259
0.73896098 0.54615086 0.80592239 0.00025940 0.00022392 0.00043554
0.85969067 0.59365433 0.56965280 0.00050506 0.00002032 0.00007645
0.24541159 0.13945460 0.39269814 -0.00022506 0.00024590 0.00024366
0.47075734 0.13226870 0.54674798 -0.00026456 -0.00040982 -0.00002265
0.55008221 0.71844536 0.69335991 -0.00003078 0.00031758 0.00006461
0.73376113 0.72057188 0.66654211 0.00006684 0.00024619 0.00004259
0.63684952 0.44572210 0.15589219 0.00006455 -0.00009819 -0.00063750
0.80615991 0.56907576 0.30595100 0.00030776 0.00013578 -0.00018123
0.76680243 0.35194066 0.72474754 0.00044166 -0.00024199 0.00008579
0.80181313 0.61388838 0.31119657 0.00038156 0.00019595 -0.00023339
0.80725491 0.67499423 0.36401588 0.00042484 0.00019200 -0.00020199
0.72687739 0.43271858 0.21534654 0.00035345 -0.00022845 -0.00026232
0.39515367 0.62322319 0.37375432 -0.00032093 0.00012265 -0.00005417
0.50423247 0.36024058 0.80931908 -0.00023250 -0.00015073 0.00036490
0.51615214 0.19336005 0.71972162 -0.00016700 -0.00038987 0.00038181
0.61292988 0.27392718 0.80077487 0.00021290 -0.00035309 0.00046626
0.64278090 0.53614146 0.83041626 -0.00007009 0.00004487 0.00044398
0.48195550 0.76366174 0.59408754 -0.00029869 0.00020173 -0.00000423
0.54049319 0.32723382 0.81354988 -0.00016480 -0.00014192 0.00042992
0.65570188 0.77080745 0.57279521 -0.00002988 0.00020218 0.00006866
0.63395685 0.77932477 0.47158480 0.00001987 0.00033446 -0.00005916
0.31117645 0.57219362 0.56988585 0.00006193 -0.00005507 0.00009549
0.73696482 0.32290268 0.74379176 0.00023471 -0.00024164 0.00024664
0.30479905 0.30546981 0.60030997 -0.00030527 -0.00024988 0.00016996
0.70707154 0.71577346 0.68642598 0.00007345 0.00029128 0.00004387
0.60173625 0.78149152 0.48435304 0.00000261 0.00033450 -0.00000392
0.42958000 0.21880625 0.67546421 -0.00023020 -0.00028867 0.00031252
0.66320890 0.27521741 0.77658439 0.00031725 -0.00030812 0.00028419
0.30823472 0.41707662 0.46205711 -0.00030249 0.00012675 -0.00001734
