0.49663660 0.53451568 0.42556444 -0.00000232 0.00001599 -0.00000797
0.46511522 0.49940458 0.35702118 -0.00001350 0.00000037 0.00000232
0.48912624 0.44897825 0.24542832 -0.00000321 -0.00001571 -0.00000141
0.49393225 0.44834557 0.22397713 -0.00000442 -0.00001510 -0.00000179
0.46898949 0.48427847 0.35489044 -0.00001113 -0.00000704 0.00000073
0.49354678 0.44839555 0.05887358 -0.00000275 -0.00001866 -0.00000483
0.54398954 0.52808619 0.10108870 0.00001129 0.00001095 -0.00000107
0.49830735 0.49551037 0.68658930 0.00000856 -0.00002169 -0.00000353
0.52368098 0.45351791 0.18473542 0.00000439 -0.00001490 -0.00000162
0.47417274 0.45440969 0.28061032 -0.00000864 -0.00001479 -0.00000067
0.52730983 0.45540413 0.20278777 0.00000834 -0.00001319 -0.00000189
0.48906535 0.50832850 0.43007046 0.00000029 -0.00000125 0.00000426
0.49685201 0.50497967 0.74374157 -0.00000995 0.00001327 0.00000168
0.50724131 0.44849917 0.24966711 0.00000076 -0.00001577 -0.00000214
0.54832828 0.51920319 0.16571407 0.00001316 0.00000605 -0.00000107
0.47840878 0.47986966 0.43007046 0.00000378 0.00000538 0.00001723
0.55032724 0.51437896 0.14939070 0.00001479 0.00000459 -0.00000117
0.53178591 0.49739385 0.32517532 -0.00000839 -0.00000041 -0.00000203
0.47073659 0.51879865 0.38893616 -0.00001454 0.00000875 0.00000189
0.54987907 0.48452568 0.05719459 0.00001780 -0.00000686 -0.00000528
0.46283177 0.46301723 0.27661154 -0.00001226 -0.00001196 -0.00000080
0.51792413 0.54885375 0.27529529 0.00000707 0.00001340 0.00000093
0.44804463 0.50371522 0.05499295 -0.00001867 0.00000257 -0.00000386
0.50164443 0.49917918 0.78589582 0.00001499 0.00000076 0.00000092
0.45933017 0.51108015 0.32517532 0.00000141 -0.00000081 0.00000558
0.49653387 0.50485516 0.85483903 -0.00001239 0.00003015 0.00000108
0.49802738 0.55218083 0.28720167 -0.00000154 0.00001546 -0.00000005
0.46911401 0.51600981 0.34400940 -0.00000753 0.00000453 0.00000065
0.52571899 0.54562491 0.07780493 0.00000726 0.00001552 -0.00000171
0.46139550 0.46488893 0.09284386 -0.00001353 -0.00000926 -0.00000202
0.55070812 0.48676369 0.23263833 0.00001524 -0.00000432 -0.00000090
0.52877247 0.48054233 0.33260933 0.00000126 0.00000019 -0.00000389
0.48311213 0.45070630 0.18578534 -0.00000847 -0.00001334 -0.00000084
0.50010270 0.44755924 0.27720600 0.00000014 -0.00001727 -0.00000098
0.54546219 0.52612269 0.22345354 0.00001329 0.00000824 0.00000016
0.52664167 0.45489147 0.28217477 0.00000862 -0.00001459 0.00000022
0.53467202 0.50223535 0.42969051 0.00001361 0.00000302 0.00001120
0.50429058 0.52228296 0.32517532 -0.00000130 -0.00000475 0.00000016
0.50375241 0.44803920 0.21902296 0.00000299 -0.00001525 -0.00000081
0.53080046 0.51622707 0.37906688 0.00001467 0.00000671 0.00000140
0.55120724 0.49055162 0.23982601 0.00001499 -0.00000105 -0.00000136
0.51050562 0.44892824 0.31495970 0.00000051 -0.00001529 0.00000261
0.49761745 0.44786015 0.18832333 -0.00000292 -0.00001550 -0.00000215
0.49929547 0.50430608 0.47667983 0.00000320 0.00001439 0.00000772
0.45596954 0.47196019 0.09893887 -0.00001292 -0.00000934 -0.00000189
0.54689294 0.52267021 0.22946310 0.00001434 0.00000417 -0.00000067
0.49735472 0.49577305 0.74220711 0.00000241 -0.00001678 -0.00000275
0.54430497 0.52767533 0.13577804 0.00001206 0.00000952 -0.00000155
0.55059183 0.51373899 0.29359394 0.00001541 0.00000571 0.00000033
0.46767414 0.45925659 0.21812029 -0.00000904 -0.00001278 -0.00000121
0.51651609 0.53067601 0.33473006 0.00000122 0.00000252 -0.00000127
0.52025306 0.53696823 0.32517532 -0.00000156 -0.00000219 0.00000629
0.48216492 0.45109898 0.26537052 -0.00000690 -0.00001466 0.00000071
0.46448985 0.53828728 0.11318511 -0.00000947 0.00001183 -0.00000205
0.50135082 0.50373882 0.50433332 0.00001765 0.00001333 0.00000450
0.52328652 0.49653938 0.43007046 0.00000008 0.00000045 0.00001337
0.49278775 0.49994186 0.90065479 -0.00002573 0.00002649 -0.00002296
0.55081815 0.51239002 0.21538322 0.00001513 0.00000248 -0.00000104
0.52611268 0.51465988 0.43007046 -0.00000827 -0.00000362 0.00001857
0.51747417 0.54904014 0.31893939 0.00000580 0.00001064 -0.00000075
0.46539977 0.50274533 0.33391377 -0.00000211 -0.00000010 -0.00000271
0.52109301 0.47726619 0.04545454 -0.00000034 -0.00000001 -0.00001669
0.45513046 0.52693266 0.05103776 -0.00001692 0.00000943 0.00000919
0.45955655 0.53270131 0.32197008 -0.00000945 0.00000137 0.00000246
0.49043977 0.49566668 0.32517532 0.00000095 0.00000046 0.00000048
0.50635225 0.55160540 0.28749254 0.00000366 0.00001467 0.00000015
0.46775410 0.54079163 0.27770239 -0.00000830 0.00001256 -0.00000034
0.50287884 0.46346450 0.04545454 -0.00000079 -0.00000059 -0.00001755
0.48955894 0.46679696 0.39604384 -0.00000591 -0.00001762 0.00000176
0.55211169 0.50256622 0.29955804 0.00001552 0.00000221 0.00000026
0.49432766 0.50552422 0.70177639 -0.00001012 0.00001379 0.00000460
0.50180805 0.55017734 0.04545454 0.00000096 0.00000075 -0.00001644
0.49631295 0.49606031 0.84070367 -0.00000713 -0.00002101 -0.00000163
0.50231069 0.55213720 0.20073608 0.00000252 0.00001468 0.00000031
0.45298880 0.50894302 0.32517532 0.00001217 -0.00000562 0.00001198
0.45017904 0.51241273 0.32517532 -0.00000577 0.00000221 0.00001373
0.54252326 0.52999604 0.14862984 0.00001161 0.00000904 -0.00000167
0.51026922 0.46672425 0.39492121 0.00000468 -0.00001764 0.00000040
0.49911639 0.49528763 0.72994256 0.00000825 -0.00001844 0.00000275
0.51463437 0.51801962 0.43007046 0.00000216 0.00000147 0.00001305
0.55237532 0.50056088 0.28686625 0.00001609 0.00000085 -0.00000055
0.49272779 0.49972638 0.66556895 -0.00002351 -0.00000560 0.00000903
0.53210312 0.45908207 0.23620899 0.00000787 -0.00001303 -0.00000023
0.46576974 0.50555509 0.33977517 -0.00000632 0.00000081 -0.00000047
0.49361771 0.50294983 0.50150806 -0.00001072 0.00001107 0.00000784
0.55094993 0.48860174 0.22928494 0.00001517 -0.00000171 -0.00000057
0.54555762 0.47409460 0.05253040 0.00001781 -0.00000864 0.00000912
0.49023980 0.55115634 0.08105562 -0.00000249 0.00001600 -0.00000107
0.55148447 0.49265784 0.09887522 0.00001516 -0.00000215 -0.00000121
0.50776851 0.49430135 0.43007046 -0.00000011 0.00000023 0.00000559
0.53975528 0.47235113 0.32517532 -0.00000965 0.00000650 0.00001118
0.46598607 0.50719857 0.39004064 -0.00001671 0.00000452 0.00000088
0.54944825 0.48348668 0.06919736 0.00001529 -0.00000861 -0.00000145
0.47371641 0.45462057 0.14287116 -0.00000869 -0.00001383 -0.00000246
0.44835368 0.49392229 0.12488972 -0.00001444 -0.00000405 -0.00000223
0.48296759 0.45076630 0.13918687 -0.00000813 -0.00001321 -0.00000200
0.46154183 0.46469894 0.10349035 -0.00001271 -0.00000974 -0.00000160
0.51619339 0.53080964 0.37319732 0.00000730 0.00001315 0.00000148
0.50322795 0.44797102 0.06343325 0.00000262 -0.00001798 -0.00000206
0.54626215 0.47579360 0.07371978 0.00001593 -0.00000646 -0.00000132
0.47159019 0.54373509 0.22267814 -0.00001034 0.00001099 -0.00000144
0.48606732 0.44948184 0.09278112 -0.00000477 -0.00001604 -0.00000333
0.44994447 0.48496473 0.22228272 -0.00001447 -0.00000585 -0.00000158
0.46210453 0.46396536 0.29289037 -0.00001289 -0.00001076 -0.00000083
0.48945165 0.46701333 0.43007046 -0.00000248 -0.00001605 0.00001736
0.55070543 0.48673913 0.27935132 0.00001599 -0.00000353 -0.00000112
0.46062919 0.53409934 0.19180310 -0.00001252 0.00000744 -0.00000108
0.44901273 0.48891720 0.27583343 -0.00001616 -0.00000160 -0.00000043
0.44803554 0.50364792 0.13976684 -0.00001440 0.00000360 -0.00000208
0.49718747 0.55207080 0.29723278 -0.00000245 0.00001521 0.00000117
0.54819560 0.48046327 0.28205571 0.00001411 -0.00000611 -0.00000118
0.46425167 0.53810459 0.12419795 -0.00000930 0.00001171 -0.00000127
0.49156329 0.55132991 0.29032326 -0.00000136 0.00001503 0.00000131
0.51037741 0.55107546 0.10267134 0.00000041 0.00001565 -0.00000181
0.49544030 0.50536877 0.47783706 -0.00000928 0.00002060 0.00000455
0.51504707 0.51236367 0.04545454 -0.00000102 -0.00000037 -0.00001522
0.51156372 0.55091906 0.21144350 0.00000207 0.00001502 -0.00000037
0.47127751 0.54349595 0.29011238 -0.00001017 0.00001163 -0.00000000
0.54468495 0.47280836 0.20772102 0.00001271 -0.00000863 -0.00000065
0.54751837 0.47882789 0.31105453 0.00001398 -0.00000467 0.00000219
0.53863811 0.51361722 0.04545454 -0.00000145 0.00000089 -0.00001833
0.52909517 0.51902413 0.41726413 0.00001675 0.00000943 0.00000202
0.52079666 0.54766387 0.13165832 0.00000537 0.00001375 -0.00000034
0.50262976 0.50274986 0.77564746 0.00001414 0.00000829 -0.00000140
0.55222440 0.50170898 0.09775623 0.00001556 0.00000215 -0.00000144
0.48219487 0.52801526 0.32517532 0.00000311 -0.00000510 -0.00000216
0.55130261 0.49127975 0.13209465 0.00001469 -0.00000161 -0.00000071
0.46845499 0.51441902 0.34731099 -0.00000909 0.00000410 0.00000122
0.51274085 0.44922277 0.07072636 0.00000141 -0.00001803 -0.00000370
0.54714751 0.52205569 0.13249463 0.00001419 0.00000447 -0.00000043
0.50336337 0.55199897 0.07292166 0.00000310 0.00001651 0.00000027
0.52225655 0.47337466 0.34660104 0.00000599 -0.00000743 0.00000170
0.49985275 0.50124085 0.94606698 0.00003538 0.00000872 -0.00004211
0.49309957 0.50107354 0.58561480 -0.00002151 0.00000136 0.00000876
0.47031757 0.54275876 0.17954217 -0.00001071 0.00000992 -0.00000047
0.54655212 0.47649536 0.25560939 0.00001508 -0.00000437 -0.00000024
0.54494947 0.52683538 0.17250085 0.00001316 0.00000826 -0.00000104
0.49615210 0.48261854 0.43007046 -0.00000036 0.00000047 0.00001020
0.45947382 0.53259403 0.20506395 -0.00001225 0.00000761 -0.00000093
0.50507873 0.55177265 0.26134172 0.00000244 0.00001486 -0.00000020
0.50231528 0.55213720 0.18652438 0.00000305 0.00001449 0.00000007
0.45639947 0.52858704 0.27742785 -0.00001179 0.00000981 -0.00000049
0.54583937 0.52521366 0.08170193 0.00001490 0.00000706 -0.00000184
0.50347972 0.44800377 0.26298434 0.00000288 -0.00001600 -0.00000040
0.51552337 0.53108692 0.42253920 0.00000948 0.00001516 -0.00000038
0.53460020 0.53898901 0.11475501 0.00000834 0.00001285 -0.00000118
0.47092569 0.45676222 0.24579558 -0.00001124 -0.00001171 -0.00000222
0.50131172 0.50374883 0.44777012 0.00000967 0.00000971 0.00000331
0.52129298 0.54745841 0.19921437 0.00000402 0.00001422 -0.00000085
0.52047127 0.54779840 0.12791315 0.00000461 0.00001407 -0.00000147
0.52287835 0.54680115 0.11148796 0.00000415 0.00001464 -0.00000083
0.50046360 0.46508887 0.40028080 -0.00000141 -0.00001919 0.00000128
0.53118318 0.45837668 0.12474065 0.00000939 -0.00001173 -0.00000082
0.45598227 0.52235657 0.32517532 0.00000181 -0.00000149 0.00001531
0.44914457 0.48791727 0.05010328 -0.00002097 -0.00000490 0.00000815
0.54111701 0.49704751 0.32517532 -0.00000200 0.00000136 0.00000473
0.49271142 0.46598792 0.42567080 -0.00000239 -0.00001942 -0.00000236
0.48738906 0.49330688 0.43007046 0.00000019 -0.00000025 0.00000606
0.50244707 0.50343615 0.90654528 0.00001816 0.00000646 -0.00001063
0.48011050 0.54803747 0.32475990 -0.00000507 0.00000637 0.00001035
0.44972998 0.48548287 0.14272662 -0.00001478 -0.00000464 -0.00000229
0.54696846 0.47750077 0.05766093 0.00001731 -0.00000697 -0.00000168
0.55105996 0.51055199 0.06006258 0.00001839 0.00000084 -0.00000375
0.47642258 0.52559632 0.33324292 -0.00000063 0.00000097 -0.00000289
0.47295558 0.50986296 0.04545454 -0.00000030 -0.00000086 -0.00001599
0.51299721 0.47422370 0.43007046 -0.00000543 0.00001241 0.00001749
0.52315831 0.45330158 0.09842527 0.00000416 -0.00001575 -0.00000299
0.45211253 0.47972965 0.05952442 -0.00001736 -0.00000651 -0.00000684
0.50138897 0.49825197 0.52311200 0.00001004 -0.00001262 0.00000066
0.47049120 0.45709494 0.23557630 -0.00001120 -0.00001141 -0.00000131
0.50066626 0.50392699 0.88336784 0.00000598 0.00002821 -0.00001940
0.52557999 0.54568219 0.21669583 0.00000710 0.00001353 0.00000006
0.51771688 0.54893923 0.28786436 0.00000895 0.00001275 0.00000028
0.50147170 0.55224812 0.29954535 0.00000175 0.00001570 0.00000046
0.53188586 0.45891482 0.19130132 0.00000723 -0.00001315 -0.00000209
0.50856662 0.55078000 0.32517532 0.00000393 0.00000688 0.00001273
0.50429058 0.55187631 0.27756238 0.00000494 0.00001459 0.00000087
0.54953188 0.48368847 0.06676117 0.00001576 -0.00000823 -0.00000130
0.55206352 0.49705568 0.28792161 0.00001525 -0.00000362 0.00000009
0.48953256 0.55106270 0.16568317 -0.00000046 0.00001460 -0.00000065
0.44867733 0.49146974 0.30209970 -0.00001581 -0.00000053 0.00000235
0.47259197 0.54450405 0.13000390 -0.00000930 0.00001200 -0.00000128
0.44980723 0.51469171 0.09055583 -0.00001526 0.00000504 -0.00000169
0.48219487 0.54890108 0.07672318 -0.00000831 0.00001442 -0.00000165
0.46510431 0.50050455 0.39670107 -0.00001830 -0.00000001 0.00000294
0.55072361 0.48688099 0.04887248 0.00001552 -0.00000211 0.00000392
0.49304140 0.44846281 0.21853662 -0.00000203 -0.00001539 -0.00000129
0.49700567 0.44794011 0.24284305 -0.00000298 -0.00001578 -0.00000125
0.44933638 0.48646009 0.17847042 -0.00001538 -0.00000345 -0.00000175
0.48399112 0.45034268 0.23274833 -0.00000749 -0.00001445 -0.00000099
0.49678293 0.50499874 0.55450696 -0.00000283 0.00001919 0.00000388
0.49517578 0.50544238 0.50533783 -0.00000748 0.00001928 0.00000625
0.48815811 0.55088180 0.18896511 -0.00000213 0.00001462 -0.00000084
0.51862228 0.54856467 0.15958631 0.00000642 0.00001310 -0.00000019
0.50427055 0.53439659 0.32965407 -0.00000035 -0.00000199 -0.00000727
0.46582338 0.49401954 0.40009448 -0.00001778 -0.00000316 0.00000145
0.49962181 0.50421518 0.72078049 0.00000957 0.00001504 0.00000164
0.44842276 0.50658411 0.28114486 -0.00001541 0.00000149 -0.00000095
0.50051266 0.49507675 0.52241385 0.00001150 -0.00001319 0.00000371
0.50982839 0.55114722 0.11596311 0.00000019 0.00001508 -0.00000220
0.46989581 0.51770329 0.42106116 -0.00001793 0.00000764 -0.00000070
0.49458763 0.50560415 0.52754712 -0.00000801 0.00001905 0.00000863
0.55133903 0.50843394 0.18056481 0.00001445 0.00000086 -0.00000267
0.51167005 0.50533241 0.43007046 -0.00000116 -0.00000050 0.00000754
0.49267599 0.55147636 0.14454375 -0.00000036 0.00001444 -0.00000090
0.50756854 0.53822905 0.04545454 -0.00000080 0.00000123 -0.00001805
0.53724277 0.49373049 0.04545454 -0.00000227 0.00000046 -0.00001769
0.47039396 0.54281789 0.04643355 -0.00000905 0.00001215 -0.00001493
0.50473511 0.53433573 0.35011262 0.00000221 0.00001040 0.00000262
0.55221349 0.50179082 0.12470702 0.00001508 0.00000199 -0.00000111
0.49223146 0.55141813 0.13422723 -0.00000194 0.00001435 -0.00000140
0.51401258 0.44951364 0.19513012 0.00000377 -0.00001554 0.00000004
0.51047015 0.44892368 0.06643757 -0.00000036 -0.00001816 -0.00000271
0.47723982 0.47376463 0.37386364 -0.00000906 -0.00001353 0.00000283
0.47162476 0.50177264 0.43007046 0.00001571 -0.00000525 0.00001453
0.46839952 0.45870027 0.23763433 -0.00001015 -0.00001205 -0.00000136
0.47324193 0.52206391 0.36929029 -0.00001117 0.00000948 0.00000164
0.52100664 0.52757168 0.33145577 -0.00000089 -0.00000015 -0.00000548
0.44835824 0.50610048 0.31346795 -0.00001502 0.00000005 0.00000496
0.49221143 0.49785471 0.51125830 -0.00001909 -0.00001197 0.00000834
0.51137918 0.55094361 0.11365235 0.00000074 0.00001534 -0.00000153
0.55162352 0.49371594 0.12474246 0.00001464 -0.00000168 -0.00000168
0.55179989 0.49505675 0.11033532 0.00001462 -0.00000411 -0.00000197
0.45493412 0.47330922 0.19259849 -0.00001354 -0.00000811 -0.00000185
0.45300156 0.47758344 0.08217372 -0.00001560 -0.00000552 -0.00000273
0.53761727 0.53639013 0.25293234 0.00001202 0.00000971 -0.00000121
0.44817919 0.49525034 0.19834442 -0.00001445 -0.00000404 -0.00000172
0.45122257 0.48187768 0.17931128 -0.00001344 -0.00000655 -0.00000144
0.52867424 0.45645046 0.22017013 0.00000967 -0.00001182 -0.00000161
0.52380550 0.45356974 0.18851514 0.00000421 -0.00001500 -0.00000181
0.52583814 0.47671896 0.42319918 0.00001680 -0.00001090 -0.00000930
0.47917965 0.54765207 0.08367451 -0.00000640 0.00001457 -0.00000215
0.46942675 0.48322213 0.37797061 -0.00001470 -0.00000856 0.00000093
0.54565305 0.52566361 0.07935300 0.00001499 0.00000789 -0.00000176
0.51195639 0.55086726 0.15632293 0.00000154 0.00001509 -0.00000071
0.47184929 0.45605227 0.19939074 -0.00001048 -0.00001194 -0.00000136
0.47476271 0.54582214 0.24453384 -0.00000685 0.00001390 -0.00000011
0.44886729 0.49002528 0.24723364 -0.00001569 0.00000002 -0.00000035
0.46972579 0.51748055 0.41743684 -0.00001667 0.00001018 0.00000218
0.47414276 0.52364743 0.04545454 0.00000123 -0.00000125 -0.00001698
0.55207258 0.50285983 0.19135767 0.00001428 0.00000343 -0.00000079
0.53466839 0.49771926 0.40191162 0.00001793 -0.00000067 0.00000185
0.44824189 0.49477586 0.27222911 -0.00001532 -0.00000370 -0.00000052
0.50193256 0.50022089 0.71502090 0.00002036 0.00000191 -0.00000411
0.53836268 0.52994150 0.32517532 -0.00000605 -0.00000479 0.00001106
0.55091631 0.48834541 0.22586608 0.00001515 -0.00000225 -0.00000110
0.51399446 0.53377664 0.04545454 0.00000024 0.00000061 -0.00001758
0.46006924 0.49258968 0.32517532 0.00000062 -0.00000082 0.00000358
0.52452731 0.47511637 0.38353840 0.00001175 -0.00001224 0.00000144
0.49401131 0.50437701 0.51129371 -0.00001306 0.00001612 0.00000851
0.53196311 0.45897481 0.11343963 0.00000817 -0.00001307 -0.00000144
0.53669912 0.53737825 0.29110232 0.00001008 0.00001274 0.00000038
0.51856679 0.47054306 0.40555042 0.00000981 -0.00001628 0.00000159
0.49716747 0.47594357 0.32517532 -0.00000082 0.00000617 -0.00000027
0.49598661 0.55191267 0.08723336 -0.00000340 0.00001563 -0.00000123
0.47914058 0.45235163 0.22702602 -0.00000482 -0.00001494 -0.00000101
0.45761120 0.46982038 0.24761544 -0.00001191 -0.00001059 -0.00000111
0.45166984 0.51918775 0.12640780 -0.00001358 0.00000536 -0.00000250
0.45511410 0.47307560 0.22919677 -0.00001359 -0.00000891 -0.00000188
0.49467400 0.50558054 0.46185094 -0.00000662 0.00001416 0.00000786
0.47591808 0.54630125 0.05223223 -0.00000586 0.00001917 0.00000743
0.47578898 0.45373973 0.30922556 -0.00000721 -0.00001446 -0.00000073
0.48043141 0.52867162 0.34026787 -0.00000342 0.00000538 -0.00000020
0.46016833 0.46648878 0.18392274 -0.00001272 -0.00000821 0.00000061
0.53557563 0.46422625 0.32517532 -0.00000120 -0.00000413 0.00001359
0.52759981 0.47901428 0.35452864 0.00000980 -0.00000721 0.00000125
0.51300722 0.51810598 0.04545454 -0.00000111 -0.00000062 -0.00001542
0.50505322 0.50974572 0.04545454 -0.00000070 -0.00000011 -0.00001471
0.47447821 0.45428240 0.21565685 -0.00000818 -0.00001445 -0.00000169
0.54045343 0.46729326 0.30985916 0.00001171 -0.00000939 0.00000172
0.54798925 0.52002221 0.31110540 0.00001326 0.00000592 0.00000250
0.54982007 0.51560259 0.11950283 0.00001395 0.00000653 -0.00000082
0.52157021 0.47284743 0.40129438 0.00001116 -0.00001428 0.00000048
0.51394349 0.50456882 0.43007046 -0.00000232 -0.00000034 0.00000890
0.49036792 0.45374608 0.32517532 0.00000270 0.00001622 0.00001007
0.46548429 0.46093738 0.28357193 -0.00000873 -0.00001398 -0.00000043
0.46782324 0.48709372 0.41385981 -0.00001763 -0.00000777 0.00000229
0.47659802 0.45340520 0.29390121 -0.00000566 -0.00001534 -0.00000093
0.46638513 0.50942111 0.35185611 -0.00001173 0.00000342 0.00000104
0.50237530 0.55212903 0.12235536 0.00000217 0.00001498 -0.00000104
0.45187980 0.51969498 0.11071711 -0.00001361 0.00000559 -0.00000079
0.53814447 0.53570288 0.22141732 0.00001210 0.00000925 -0.00000230
0.44909182 0.48831996 0.13777697 -0.00001508 -0.00000227 -0.00000140
0.46212634 0.46393719 0.24586648 -0.00001259 -0.00001036 -0.00000021
0.52381647 0.46509343 0.04545454 -0.00000060 -0.00000128 -0.00001979
0.52728438 0.54460227 0.15045790 0.00000894 0.00001222 -0.00000079
0.49944094 0.55236715 0.23673531 -0.00000011 0.00001540 -0.00000030
0.44818279 0.50476241 0.26988655 -0.00001513 0.00000400 -0.00000090
0.53688008 0.46274814 0.21208526 0.00001072 -0.00001168 -0.00000109
0.46163639 0.46457529 0.21510868 -0.00001288 -0.00000945 -0.00000137
0.48737544 0.55077910 0.08006024 -0.00000413 0.00001643 -0.00000118
0.49196967 0.44860372 0.23958148 -0.00000169 -0.00001567 -0.00000224
0.47109026 0.45663586 0.09822618 -0.00001299 -0.00001068 -0.00000293
0.45969108 0.46711150 0.16612312 -0.00001271 -0.00000828 -0.00000150
0.51680058 0.45066810 0.24815632 0.00000664 -0.00001444 -0.00000199
0.54687929 0.52270204 0.07987296 0.00001594 0.00000391 -0.00000237
0.47896606 0.54756385 0.21564318 -0.00000378 0.00001410 -0.00000084
0.46390077 0.53783458 0.17312443 -0.00000959 0.00001134 -0.00000063
0.49322230 0.49691299 0.74452144 -0.00001497 -0.00001069 -0.00000585
0.46614695 0.50842303 0.42156202 -0.00001766 0.00000529 -0.00000447
0.55117810 0.50965661 0.12720138 0.00001499 0.00000037 -0.00000047
0.45503414 0.47317925 0.14350384 -0.00001305 -0.00000888 -0.00000195
0.49445310 0.44827649 0.16584679 -0.00000415 -0.00001480 -0.00000155
0.52912426 0.48100141 0.37259918 0.00001319 -0.00000809 0.00000085
0.54725564 0.52179301 0.17621966 0.00001398 0.00000441 -0.00000122
0.50187165 0.53471297 0.34630015 0.00000012 0.00000947 0.00000092
0.52820975 0.47151846 0.32517532 -0.00000072 0.00000269 0.00000327
0.47428364 0.54562402 0.23764344 -0.00000700 0.00001392 -0.00000009
0.51359904 0.55064452 0.17230541 0.00000438 0.00001495 -0.00000056
0.45215523 0.52035946 0.14248303 -0.00001301 0.00000649 -0.00000142
0.46991488 0.54244971 0.25438404 -0.00000992 0.00001120 0.00000062
0.45482689 0.52653813 0.07435700 -0.00001520 0.00000781 -0.00000214
0.53357941 0.50951660 0.34961897 0.00001052 0.00000347 0.00000167
0.52348560 0.54655033 0.28403372 0.00000475 0.00001482 0.00000088
0.46452257 0.53831273 0.20335589 -0.00000854 0.00001219 -0.00000042
0.45879659 0.53171051 0.31550056 -0.00001109 0.00000778 0.00000363
0.51391625 0.46823502 0.42344278 0.00000979 -0.00001740 -0.00000710
0.52248019 0.54696667 0.11866382 0.00000399 0.00001453 -0.00000132
0.45780393 0.46956947 0.29679829 -0.00001202 -0.00001070 -0.00000027
0.49219057 0.46605700 0.40566769 -0.00000398 -0.00001892 0.00000149
0.47311375 0.45508236 0.15778007 -0.00000927 -0.00001278 -0.00000138
0.54991186 0.51538074 0.26334611 0.00001468 0.00000601 -0.00000023
0.49959365 0.55238712 0.04586450 -0.00000014 0.00001775 -0.00001448
0.49858916 0.44773197 0.15129328 -0.00000223 -0.00001550 -0.00000220
0.54029709 0.53289765 0.18422091 0.00001185 0.00000846 -0.00000085
0.54600847 0.52480459 0.13980046 0.00001413 0.00000611 -0.00000136
0.52966237 0.54277784 0.22625880 0.00000942 0.00001147 -0.00000118
0.53003055 0.45749217 0.06401411 0.00001183 -0.00001356 -0.00000121
0.50580233 0.55167717 0.24735908 0.00000351 0.00001447 -0.00000162
0.50072718 0.51984131 0.43007046 0.00000069 0.00000067 0.00001110
0.50176895 0.49962911 0.63700104 0.00001831 -0.00000411 -0.00000083
0.51747239 0.45094627 0.07867033 0.00000773 -0.00001473 -0.00000223
0.46659058 0.53989899 0.20047338 -0.00000681 0.00001302 -0.00000048
0.48645094 0.53190321 0.42701888 -0.00001117 0.00001182 0.00000163
0.51509982 0.44996363 0.21937473 0.00000546 -0.00001497 -0.00000220
0.54595393 0.50248164 0.32517532 -0.00001817 0.00000051 0.00001047
0.48610917 0.47977239 0.04545454 -0.00000145 -0.00000057 -0.00001570
0.52070308 0.52780533 0.40271881 0.00001138 0.00001312 0.00000084
0.53810090 0.46422717 0.07962207 0.00001217 -0.00001176 -0.00000240
0.53262126 0.48815632 0.42110568 0.00001969 -0.00000413 0.00000021
0.49883550 0.50443244 0.68987364 0.00000660 0.00001567 -0.00000291
0.44843644 0.50669140 0.30354866 -0.00001522 0.00000172 0.00000145
0.45829025 0.53105056 0.29790092 -0.00001251 0.00000854 0.00000134
0.49690017 0.49686295 0.04545454 -0.00000023 -0.00000000 -0.00001456
0.54824471 0.51940501 0.11302330 0.00001381 0.00000564 -0.00000143
0.52442366 0.54616123 0.06840016 0.00000558 0.00001682 -0.00000103
0.51630151 0.54952556 0.27884594 0.00000647 0.00001384 0.00000089
0.49879283 0.44770563 0.16917382 -0.00000212 -0.00001576 -0.00000117
0.53495473 0.49990004 0.35076073 0.00001161 0.00000030 0.00000183
0.52979785 0.45731309 0.22348171 0.00001095 -0.00001074 -0.00000091
0.45363060 0.47606450 0.06376959 -0.00001663 -0.00000802 -0.00000059
0.47513908 0.50085813 0.43007046 0.00000044 -0.00000043 0.00001287
0.46012464 0.46654519 0.29845998 -0.00001318 -0.00000929 0.00000129
0.55214262 0.49765927 0.28396103 0.00001539 -0.00000288 -0.00000069
0.44831279 0.50575507 0.07723588 -0.00001650 0.00000008 -0.00000134
0.53152865 0.51446986 0.41004011 0.00001639 0.00000747 0.00000144
0.47312099 0.45507687 0.29367667 -0.00001113 -0.00001328 -0.00000128
0.50692767 0.46593976 0.40790391 0.00000347 -0.00001858 0.00000151
0.52271378 0.45311797 0.11610127 0.00000376 -0.00001524 -0.00000185
0.53151864 0.54135346 0.14659363 0.00000830 0.00001188 -0.00000097
0.44911909 0.48811087 0.26546872 -0.00001594 -0.00000273 -0.00000107
0.54589123 0.47490001 0.23550631 0.00001429 -0.00000582 -0.00000126
0.47891513 0.54754204 0.06010531 -0.00000742 0.00001654 -0.00000284
0.46739325 0.48813272 0.36854309 -0.00001401 -0.00000621 0.00000177
0.46225271 0.52022582 0.32517532 0.00000293 -0.00000016 0.00000661
0.48892626 0.55098271 0.27867320 -0.00000023 0.00001567 -0.00000096
0.53476930 0.50150174 0.39612746 0.00001751 0.00000011 0.00000194
0.49312955 0.49693844 0.76426464 -0.00001504 -0.00000978 -0.00000021
0.45850113 0.53132594 0.20053154 -0.00001113 0.00000906 -0.00000078
0.53775001 0.53621835 0.28156388 0.00001181 0.00001044 0.00000158
0.48951349 0.55106002 0.10434757 -0.00000030 0.00001548 -0.00000110
0.49829647 0.55221623 0.19428654 -0.00000220 0.00001473 -0.00000125
0.49247146 0.49712023 0.56272185 -0.00001327 -0.00001179 -0.00000163
0.50266343 0.50337708 0.61686522 0.00001471 0.00000748 0.00000556
0.48148856 0.54860836 0.22870953 -0.00000615 0.00001330 -0.00000068
0.48624554 0.55057824 0.07025365 -0.00000494 0.00001721 -0.00000262
0.48279214 0.54914832 0.14664543 -0.00000793 0.00001252 -0.00000103
0.45044082 0.48376572 0.05111958 -0.00001723 -0.00000888 0.00000623
0.48166221 0.52961606 0.40893656 -0.00000924 0.00001599 0.00000169
0.48220307 0.45108262 0.14883709 -0.00000921 -0.00001283 -0.00000149
0.52026850 0.47184935 0.35324782 0.00000651 -0.00001008 0.00000066
0.45003539 0.48474476 0.23889878 -0.00001454 -0.00000652 -0.00000165
0.49293959 0.50049275 0.43212488 -0.00000217 -0.00000106 -0.00000607
0.45279884 0.47807342 0.30682573 -0.00001558 -0.00000375 0.00000025
0.51559430 0.54981828 0.11801751 0.00000591 0.00001394 -0.00000125
0.49390587 0.44834828 0.11985100 -0.00000405 -0.00001501 -0.00000324
0.53281307 0.48861903 0.36278170 0.00001358 -0.00000338 0.00000079
0.49171421 0.55135000 0.22513343 -0.00000025 0.00001468 -0.00000004
0.49930277 0.50430334 0.79036546 0.00001440 0.00001380 -0.00000268
0.47521812 0.54182702 0.32517532 0.00000739 -0.00000754 0.00001361
0.54185879 0.53086239 0.14049223 0.00001101 0.00000977 -0.00000084
0.50152534 0.49874648 0.82901543 0.00001834 -0.00001167 0.00000077
0.49707022 0.50020730 0.95230108 -0.00000351 -0.00000173 -0.00001740
0.53324580 0.54002804 0.08487624 0.00000842 0.00001359 -0.00000192
0.50052267 0.49511132 0.60394979 0.00000888 -0.00001497 -0.00000013
0.44876549 0.50919390 0.24281761 -0.00001533 -0.00000070 -0.00000001
0.47918242 0.45233437 0.23777342 -0.00000602 -0.00001467 -0.00000178
0.47942871 0.47208476 0.39158326 -0.00001040 -0.00001437 0.00000171
0.54179335 0.46903950 0.31601235 0.00001074 -0.00000926 0.00000399
0.55208898 0.50273347 0.20372133 0.00001469 0.00000276 -0.00000135
0.54512489 0.48885903 0.04545454 -0.00001850 0.00000492 -0.00001833
0.49423042 0.50517237 0.70778143 -0.00001062 0.00001782 0.00000517
0.46890676 0.45831123 0.20639841 -0.00001101 -0.00001117 -0.00000302
0.50715220 0.44848737 0.14903435 0.00000217 -0.00001498 -0.00000037
0.54133612 0.49134701 0.04545454 0.00000158 -0.00000257 -0.00001838
0.52387643 0.45359883 0.19268668 0.00000374 -0.00001519 -0.00000042
0.52809066 0.47965330 0.41204631 0.00001583 -0.00001036 -0.00000087
0.46924946 0.54193884 0.18751068 -0.00000891 0.00001114 -0.00000102
0.51869047 0.53430575 0.04545454 0.00000109 0.00000374 -0.00001828
0.55115813 0.49018344 0.21468145 0.00001511 0.00000061 -0.00000094
0.54677480 0.47703350 0.31820124 0.00001246 -0.00000397 -0.00000213
0.47246015 0.54440320 0.30801839 -0.00000877 0.00001278 0.00000083
0.45572773 0.50220078 0.32517532 0.00000806 0.00000043 0.00000826
0.55219167 0.49803293 0.21830572 0.00001514 -0.00000227 -0.00000075
0.44831824 0.49419320 0.26078087 -0.00001528 -0.00000245 -0.00000122
0.53078234 0.54191881 0.11987555 0.00000879 0.00001203 -0.00000153
0.49644294 0.44801468 0.27827504 -0.00000529 -0.00001586 -0.00000050
0.49464035 0.53425300 0.41934583 -0.00000280 0.00001786 0.00000763
0.48077589 0.45167440 0.09686537 -0.00000821 -0.00001380 -0.00000257
0.53555286 0.46172914 0.31571782 0.00000908 -0.00001256 0.00000291
0.47278649 0.54465318 0.29732275 -0.00000925 0.00001295 -0.00000011
0.47778341 0.52663994 0.37120110 -0.00000976 0.00001107 0.00000282
0.47801337 0.52681720 0.35472044 -0.00000766 0.00000942 0.00000231
0.51450348 0.44971728 0.17090459 0.00000398 -0.00001515 -0.00000216
0.53591925 0.53797728 0.20812918 0.00000947 0.00001180 0.00000048
0.46894041 0.51559067 0.37889054 -0.00001419 0.00000761 0.00000300
0.53676373 0.46265817 0.24380571 0.00001054 -0.00001206 -0.00000125
0.46585333 0.49379501 0.40723670 -0.00001828 -0.00000387 0.00000309
0.48188582 0.47019944 0.34861091 -0.00000573 -0.00000977 0.00000057
0.55068183 0.51342541 0.24669914 0.00001533 0.00000440 -0.00000059
0.53885537 0.53095776 0.04545454 0.00000200 0.00000293 -0.00002224
0.48892534 0.44900462 0.27682695 -0.00000111 -0.00001664 -0.00000050
0.54600757 0.47518089 0.05988077 0.00001796 -0.00000680 -0.00000009
0.45194888 0.51986134 0.10795096 -0.00001369 0.00000554 -0.00000098
0.46686053 0.51056832 0.41012919 -0.00001758 0.00000547 0.00000060
0.48157585 0.45134261 0.28258473 -0.00000822 -0.00001411 -0.00000132
0.50195438 0.50029999 0.83393323 0.00002118 -0.00000323 -0.00000814
0.49234417 0.49833557 0.47866157 -0.00001658 -0.00000778 0.00000503
0.55139357 0.50801677 0.24400026 0.00001497 0.00000093 -0.00000170
0.54183519 0.53089416 0.24099046 0.00001093 0.00001000 0.00000011
0.55144906 0.49238876 0.08473627 0.00001591 -0.00000103 -0.00000171
0.51137006 0.49183065 0.32517532 -0.00000256 0.00000102 0.00000058
0.48734906 0.44921187 0.17276447 -0.00000328 -0.00001538 -0.00000223
0.45070806 0.51686698 0.10859182 -0.00001341 0.00000680 -0.00000102
0.54662663 0.47667444 0.12382890 0.00001477 -0.00000417 -0.00000190
0.45122167 0.48188132 0.27992857 -0.00001434 -0.00000727 0.00000008
0.50036269 0.55239356 0.29589376 0.00000115 0.00001628 0.00000046
0.45669585 0.52897251 0.12187904 -0.00001118 0.00000942 -0.00000202
0.44797736 0.50320619 0.20401494 -0.00001468 0.00000365 -0.00000092
0.47052118 0.51851869 0.37582347 -0.00001305 0.00000907 0.00000165
0.54034984 0.51117104 0.04545454 -0.00000505 -0.00000093 -0.00001863
0.54126608 0.46835139 0.25101975 0.00001238 -0.00000882 -0.00000155
0.53195679 0.51343542 0.41834590 0.00001716 0.00000825 0.00000270
0.52861428 0.45640498 0.23926513 0.00001105 -0.00001106 -0.00000136
0.46264720 0.46325719 0.09046946 -0.00001280 -0.00001128 -0.00000213
0.47499266 0.45406970 0.29851449 -0.00000734 -0.00001527 0.00000129
0.46591422 0.50665683 0.33100942 0.00000080 0.00000011 -0.00000463
0.52698165 0.47820887 0.39609292 0.00001306 -0.00001157 0.00000079
0.49512762 0.46567068 0.34854180 -0.00000176 -0.00001055 0.00000043
0.44826642 0.50539964 0.30118248 -0.00001533 0.00000222 0.00000155
0.45541868 0.47267833 0.19713089 -0.00001280 -0.00000889 -0.00000074
0.44821373 0.49499038 0.31031364 -0.00001509 -0.00000341 0.00000155
0.46453893 0.53735006 0.04545454 -0.00001027 0.00001047 -0.00001911
0.51496166 0.50740039 0.32517532 -0.00000249 -0.00000166 0.00000067
0.45241705 0.52099216 0.26358432 -0.00001416 0.00000531 -0.00000088
0.54582214 0.52525455 0.24968891 0.00001394 0.00000637 -0.00000126
0.51259637 0.46768779 0.35792658 0.00000330 -0.00001305 0.00000141
0.46455523 0.53833729 0.32470897 -0.00000574 0.00000747 0.00001142
0.53891081 0.53470385 0.11862291 0.00001265 0.00000855 -0.00000159
0.45974836 0.46703601 0.23777069 -0.00001432 -0.00000698 -0.00000188
0.54744476 0.52133667 0.26483965 0.00001398 0.00000587 -0.00000012
0.53717911 0.46302631 0.14649272 0.00001085 -0.00001102 -0.00000171
0.52658719 0.45484963 0.16999650 0.00000774 -0.00001357 -0.00000154
0.52950150 0.54290146 0.25250235 0.00001081 0.00001057 -0.00000023
0.50831664 0.52675813 0.32517532 -0.00000198 -0.00000513 -0.00000064
0.54211873 0.53052419 0.15109874 0.00001139 0.00000918 -0.00000132
0.53525293 0.53848815 0.15443306 0.00000771 0.00001296 -0.00000080
0.44780099 0.49812108 0.20221324 -0.00001507 -0.00000210 -0.00000051
0.53451842 0.50340521 0.32799783 -0.00000436 -0.00000144 -0.00000506
0.49032432 0.44882005 0.12784225 -0.00000104 -0.00001531 -0.00000240
0.45473412 0.52641630 0.28602812 -0.00001381 0.00000854 -0.00000069
0.53728634 0.46316633 0.05543564 0.00001240 -0.00001599 0.00000386
0.55183262 0.50468057 0.06274601 0.00001733 0.00000398 -0.00000001
0.46591061 0.46061012 0.24648824 -0.00000842 -0.00001373 -0.00000090
0.46606699 0.53949720 0.21752761 -0.00000739 0.00001274 -0.00000135
0.51031286 0.44890371 0.11237972 0.00000021 -0.00001587 -0.00000429
0.48555923 0.44969276 0.26274616 -0.00000375 -0.00001632 -0.00000135
0.53383934 0.50856483 0.36318618 0.00001358 0.00000397 0.00000262
0.50691491 0.49156243 0.04545454 -0.00000116 0.00000034 -0.00001480
0.52676535 0.47792614 0.34974536 0.00000881 -0.00000614 0.00000132
0.48265940 0.46965492 0.42808607 -0.00001856 -0.00001341 0.00000584
0.48863897 0.46717781 0.39813551 -0.00000634 -0.00001740 0.00000183
0.49919096 0.44765288 0.15878001 -0.00000071 -0.00001585 -0.00000202
0.47627169 0.51446080 0.04545454 -0.00000014 -0.00000008 -0.00001587
0.55074728 0.48705730 0.16003811 0.00001492 -0.00000308 -0.00000182
0.48611552 0.55052459 0.25313869 -0.00000453 0.00001514 -0.00000055
0.52399004 0.49943277 0.32517532 -0.00000521 -0.00000009 -0.00000003
0.51269448 0.53225857 0.38855529 0.00000607 0.00001504 0.00000066
0.47996598 0.47841612 0.32517532 0.00000574 0.00000573 -0.00000187
0.49811739 0.44779378 0.12478610 -0.00000399 -0.00001566 -0.00000178
0.55207717 0.49716389 0.29527837 0.00001549 -0.00000255 0.00000023
0.45390147 0.52457553 0.20933092 -0.00001374 0.00000521 -0.00000031
0.49399856 0.52769625 0.32517532 0.00000212 -0.00000620 -0.00000112
0.46553516 0.50377977 0.37853146 -0.00001620 0.00000172 0.00000084
0.53030962 0.48257399 0.38809350 0.00001467 -0.00000922 0.00000092
0.51706332 0.54921013 0.21298702 0.00000671 0.00001327 -0.00000039
0.45353061 0.47630718 0.04745077 -0.00001417 -0.00000980 -0.00000574
0.49710295 0.45619136 0.04545454 -0.00000130 -0.00000190 -0.00001865
0.46940398 0.51670879 0.39471850 -0.00001551 0.00000846 0.00000149
0.54865009 0.51842779 0.29145229 0.00001375 0.00000639 -0.00000106
0.50161988 0.55222803 0.21605408 0.00000194 0.00001498 0.00000001
0.45746484 0.52997512 0.21858208 -0.00001092 0.00000970 -0.00000069
0.54192972 0.53077054 0.14321841 0.00001152 0.00000906 -0.00000041
0.52987242 0.45737037 0.08250461 0.00001039 -0.00001273 -0.00000212
0.45335698 0.47672537 0.32293001 -0.00001207 -0.00000583 0.00000433
0.53205222 0.54094434 0.09023859 0.00000946 0.00001231 -0.00000063
0.55208898 0.49724841 0.21181437 0.00001468 -0.00000378 -0.00000163
0.53049868 0.54213607 0.21360789 0.00001027 0.00001059 0.00000041
0.49023432 0.55115539 0.30255967 -0.00000016 0.00001520 0.00000204
0.54767925 0.52077127 0.28021127 0.00001421 0.00000509 -0.00000041
0.45756304 0.46988401 0.08419628 -0.00001232 -0.00001089 -0.00000350
0.50086170 0.55232811 0.23231107 0.00000141 0.00001526 -0.00000067
0.50808483 0.54743749 0.32517532 -0.00000002 -0.00000987 0.00001174
0.53445023 0.49606302 0.37984866 0.00001560 -0.00000234 0.00000121
0.50473690 0.53433573 0.39880455 0.00000304 0.00001660 0.00000139
0.49878010 0.50444788 0.84233171 0.00000719 0.00001916 0.00000262
0.51595062 0.53090960 0.42480358 0.00000943 0.00001383 -0.00001007
0.50274068 0.50315160 0.74159533 0.00001841 0.00001053 -0.00000180
0.47572717 0.54622215 0.19522467 -0.00000559 0.00001365 -0.00000112
0.52611989 0.52290201 0.37478992 0.00001103 0.00001059 0.00000114
0.55218261 0.50202262 0.24989164 0.00001535 0.00000222 -0.00000134
0.48122135 0.54849744 0.09988334 -0.00000753 0.00001315 -0.00000181
0.45034444 0.48399937 0.32201645 -0.00001183 -0.00000517 0.00000299
0.49703836 0.44793648 0.26115993 -0.00000406 -0.00001603 -0.00000060
0.44910547 0.51177555 0.29578653 -0.00001599 0.00000264 0.00000082
0.48086411 0.50526148 0.32517532 0.00000459 -0.00000124 0.00000002
0.49370772 0.44837466 0.25145969 -0.00000284 -0.00001564 -0.00000154
0.45623860 0.52837706 0.32074836 -0.00001103 0.00000509 -0.00000036
0.53917718 0.46562979 0.28975603 0.00001331 -0.00000869 -0.00000091
0.53422022 0.50566870 0.36110455 0.00001308 0.00000248 0.00000176
0.54461676 0.52726895 0.14094129 0.00001230 0.00000937 -0.00000019
0.55078000 0.48731184 0.16530955 0.00001513 -0.00000187 -0.00000095
0.46369439 0.53767639 0.23922512 -0.00000956 0.00001217 0.00000012
0.53609645 0.53784090 0.21410057 0.00000892 0.00001251 -0.00000008
0.48218584 0.46996945 0.36082640 -0.00000765 -0.00001285 0.00000209
0.51112098 0.55097729 0.19607186 0.00000184 0.00001478 -0.00000102
0.50419331 0.47980690 0.43007046 -0.00000024 -0.00000235 0.00001234
0.50475597 0.53433299 0.39281955 0.00000382 0.00001609 -0.00000011
0.49884099 0.49536309 0.62955701 0.00000734 -0.00001913 0.00000247
0.48687276 0.53885812 0.04545454 0.00000021 0.00000223 -0.00001883
0.48741272 0.55078363 0.14815350 -0.00000307 0.00001462 -0.00000085
0.49516127 0.44818285 0.31827945 -0.00000273 -0.00001418 -0.00000100
0.46260452 0.53667283 0.21409875 -0.00001128 0.00001015 -0.00000154
0.49325866 0.50165081 0.49436495 -0.00001413 0.00001146 0.00000281
0.55119264 0.49044618 0.31188992 0.00001482 -0.00000042 0.00000305
0.45433599 0.47436187 0.25491217 -0.00001496 -0.00000758 -0.00000087
0.55167896 0.50585234 0.25896189 0.00001504 0.00000226 -0.00000118
0.46004561 0.53333855 0.23363371 -0.00001187 0.00000868 -0.00000077
0.47528628 0.45394790 0.19706272 -0.00000630 -0.00001453 -0.00000137
0.53037596 0.45775667 0.04600541 0.00000862 -0.00001587 -0.00001866
0.52634901 0.52260298 0.38897434 0.00001084 0.00001289 0.00000227
0.49442947 0.49658030 0.64740032 -0.00001804 -0.00001884 0.00000736
0.50069994 0.44763744 0.06400230 -0.00000015 -0.00001890 -0.00000237
0.46921402 0.51624978 0.35027713 -0.00000977 0.00000575 0.00000128
0.46337259 0.51609981 0.04545454 -0.00000438 0.00000106 -0.00001790
0.49603933 0.55191994 0.26427698 -0.00000245 0.00001481 0.00000036
0.51960766 0.50002730 0.43007046 -0.00000156 -0.00000154 0.00001163
0.45204890 0.47988331 0.09491552 -0.00001441 -0.00000642 -0.00000223
0.55210441 0.49737021 0.29848540 0.00001563 -0.00000129 -0.00000047
0.50290889 0.44792831 0.05357305 0.00000283 -0.00001944 0.00000145
0.50181800 0.53471935 0.38351658 0.00000002 0.00001601 0.00000156
0.50378698 0.53446025 0.33400196 0.00000068 0.00000194 -0.00000304
0.51344812 0.44931641 0.15913635 0.00000258 -0.00001589 -0.00000294
0.52240020 0.45298794 0.11079256 0.00000483 -0.00001483 -0.00000222
0.54672205 0.52308196 0.16395782 0.00001390 0.00000483 -0.00000113
0.49999908 0.55244076 0.20945182 -0.00000031 0.00001572 -0.00000070
0.50850391 0.52077305 0.43007046 -0.00000219 0.00000222 0.00001262
0.46771774 0.49160519 0.04545454 -0.00000011 -0.00000043 -0.00001677
0.50142622 0.49838558 0.48736364 0.00001591 -0.00000607 0.00000414
0.51336360 0.55068183 0.23295830 0.00000372 0.00001510 -0.00000098
0.48686457 0.55071181 0.15055515 -0.00000380 0.00001461 -0.00000144
0.54988641 0.51544255 0.32259822 0.00001064 0.00000437 0.00000690
0.46743593 0.51195914 0.32890776 0.00000320 -0.00000032 -0.00000610
0.53464019 0.46102917 0.21246342 0.00000775 -0.00001326 -0.00000094
0.54293776 0.47053033 0.22623606 0.00001070 -0.00001101 -0.00000239
0.50976837 0.52201390 0.04545454 -0.00000088 -0.00000010 -0.00001557
0.48798445 0.46911407 0.32517532 0.00000300 0.00000691 -0.00000311
0.54902560 0.48246673 0.22165547 0.00001352 -0.00000657 -0.00000114
0.55111361 0.48984075 0.10874361 0.00001538 -0.00000075 -0.00000060
0.54589581 0.47490913 0.25352955 0.00001460 -0.00000638 -0.00000064
0.48882532 0.53288585 0.36924669 -0.00000498 0.00001398 0.00000226
0.52976876 0.48184136 0.32921138 -0.00000161 0.00000124 -0.00000628
0.49405134 0.50452244 0.68455034 -0.00001242 0.00001965 0.00000286
0.50976294 0.52238387 0.32517532 -0.00000261 -0.00000464 0.00000005
0.47073573 0.54307961 0.26300615 -0.00001082 0.00001077 -0.00000059
0.53733546 0.53675830 0.06707115 0.00001287 0.00001309 -0.00000108
0.48788720 0.45498598 0.04545454 0.00000608 0.00001133 -0.00001912
0.51264453 0.51103014 0.43007046 -0.00000164 -0.00000089 0.00000989
0.54352051 0.47128937 0.29986712 0.00001211 -0.00001021 0.00000125
0.51091373 0.44898281 0.11589310 0.00000022 -0.00001585 -0.00000302
0.45920292 0.46774688 0.18166928 -0.00001354 -0.00000700 -0.00000128
0.47964871 0.45214075 0.09004679 -0.00000753 -0.00001428 -0.00000338
0.49779922 0.49565032 0.54147792 0.00000249 -0.00002157 0.00000481
0.50208801 0.50078636 0.65062004 0.00002117 0.00000799 -0.00000062
0.53017783 0.45760491 0.19946072 0.00000970 -0.00001142 -0.00000202
0.44925180 0.48710367 0.16588767 -0.00001499 -0.00000341 -0.00000178
0.52402103 0.45365882 0.23884517 0.00000384 -0.00001547 -0.00000197
0.47789791 0.45286614 0.28093120 -0.00000394 -0.00001599 -0.00000152
0.47729433 0.52477551 0.43007046 -0.00000417 0.00000431 0.00001578
0.45929021 0.53235406 0.12784132 -0.00001141 0.00000883 -0.00000180
0.49729383 0.49579033 0.62046039 0.00000060 -0.00001268 0.00000487
0.48464927 0.46288815 0.32517532 0.00000073 0.00000136 0.00000321
0.50724488 0.53400487 0.32637069 -0.00000142 -0.00000454 -0.00000319
0.44853368 0.50742674 0.11539314 -0.00001493 0.00000031 -0.00000120
0.47244832 0.45559323 0.23529358 -0.00000948 -0.00001319 -0.00000146
0.49360684 0.50291163 0.53427029 -0.00001432 0.00000895 0.00000755
0.46610603 0.49187788 0.34235045 -0.00000824 -0.00000183 0.00000088
0.50910753 0.44874462 0.13150743 0.00000025 -0.00001540 -0.00000143
0.45689306 0.47075665 0.13823603 -0.00001132 -0.00001023 -0.00000174
0.53924811 0.53426486 0.06521403 0.00001431 0.00001034 -0.00000043
0.48352209 0.53068966 0.38270935 -0.00000820 0.00001442 0.00000252
0.52089846 0.45236528 0.23723528 0.00000284 -0.00001551 -0.00000067
0.54304236 0.47066665 0.12547058 0.00001046 -0.00001104 -0.00000204
0.44829279 0.50559962 0.05974805 -0.00001796 0.00000119 -0.00000542
0.54437590 0.48647463 0.04545454 -0.00002196 0.00000091 -0.00001901
0.47065300 0.45697132 0.07679592 -0.00001220 -0.00001214 -0.00000168
0.49566391 0.49623939 0.71400464 -0.00000732 -0.00001485 -0.00000111
0.53970170 0.53367400 0.23010126 0.00001283 0.00000782 0.00000075
0.49287233 0.50813401 0.32517532 0.00000109 -0.00000150 0.00000062
0.46329078 0.53736728 0.12181632 -0.00001074 0.00001089 -0.00000175
0.50850570 0.46804050 0.32517532 -0.00000141 0.00000479 -0.00000195
0.48185581 0.45122716 0.23170386 -0.00000865 -0.00001363 -0.00000197
0.54930371 0.48313853 0.12973119 0.00001343 -0.00000686 -0.00000180
0.49084702 0.55123633 0.08412265 -0.00000184 0.00001584 -0.00000167
0.48939255 0.45706040 0.04545454 -0.00000181 -0.00000429 -0.00001892
0.48205310 0.50254804 0.32517532 0.00000367 -0.00000066 0.00000012
0.54733837 0.52159482 0.27465621 0.00001382 0.00000613 0.00000048
0.50099444 0.49682206 0.69584411 0.00000967 -0.00001233 0.00000344
0.47773883 0.54705483 0.23893607 -0.00000391 0.00001442 -0.00000048
0.55061638 0.48630735 0.27377629 0.00001566 -0.00000415 0.00000034
0.53084594 0.45811757 0.28600177 0.00000998 -0.00001226 -0.00000010
0.48682821 0.50562602 0.43007046 0.00000066 -0.00000109 0.00000523
0.50192076 0.50017911 0.76927239 0.00001448 0.00000499 -0.00000159
0.50476056 0.50714952 0.43007046 -0.00000156 0.00000013 0.00000222
0.52256018 0.51539981 0.04545454 -0.00000060 0.00000011 -0.00001599
0.44969362 0.51441807 0.12363072 -0.00001451 0.00000467 -0.00000194
0.55191714 0.49594939 0.26609591 0.00001515 -0.00000232 -0.00000025
0.49951458 0.45456329 0.04545454 -0.00000158 0.00000816 -0.00001950
0.45378056 0.47570267 0.25118610 -0.00001540 -0.00000553 -0.00000083
0.46568701 0.50492966 0.40204889 -0.00001785 0.00000119 0.00000177
0.46671417 0.48977074 0.40472230 -0.00001806 -0.00000554 0.00000310
0.52427280 0.52506548 0.36729500 0.00000998 0.00001083 0.00000257
0.47337556 0.54510587 0.14477828 -0.00000837 0.00001274 -0.00000248
0.50419515 0.46558067 0.34908178 0.00000082 -0.00001067 0.00000039
0.50443971 0.47200844 0.04545454 -0.00000157 -0.00000051 -0.00001624
0.55229890 0.49884832 0.11402597 0.00001549 -0.00000107 -0.00000105
0.45365787 0.52398741 0.24375662 -0.00001438 0.00000534 0.00000087
0.49726290 0.49579850 0.70177728 0.00000257 -0.00001389 0.00000089
0.49409226 0.50467330 0.66456085 -0.00001118 0.00001757 -0.00000145
0.51115465 0.44901460 0.23480546 -0.00000029 -0.00001627 -0.00000140
0.45266339 0.52158666 0.24038687 -0.00001430 0.00000444 -0.00000108
0.49681386 0.55202174 0.15503575 -0.00000443 0.00001408 -0.00000031
0.52995235 0.54255515 0.19893439 0.00001117 0.00000982 -0.00000035
0.49308500 0.50102174 0.81051219 -0.00001643 -0.00000193 -0.00000230
0.47519177 0.52460462 0.34146869 -0.00000508 0.00000563 0.00000052
0.52698624 0.45515600 0.08024930 0.00000873 -0.00001494 -0.00000213
0.46953490 0.51702607 0.35391232 -0.00001095 0.00000631 0.00000203
0.48580921 0.49464405 0.32517532 0.00000157 0.00000083 0.00000024
0.49038884 0.50862122 0.04545454 -0.00000146 -0.00000005 -0.00001473
0.55177444 0.50512147 0.14729902 0.00001456 0.00000192 -0.00000101
0.46037009 0.49947736 0.32517532 0.00000008 -0.00000022 0.00000239
0.45455050 0.52614361 0.19131131 -0.00001305 0.00000787 -0.00000105
0.46492615 0.53862274 0.13039660 -0.00000864 0.00001207 -0.00000131
0.48383474 0.54958010 0.08547983 -0.00000714 0.00001460 -0.00000169
0.47876060 0.47259745 0.33002770 0.00000035 0.00000277 -0.00000499
0.52810073 0.52031952 0.34380579 0.00000637 0.00000477 0.00000071
0.48888350 0.48298037 0.43007046 0.00000064 0.00000033 0.00001134
0.44871911 0.50884032 0.29305306 -0.00001574 0.00000026 -0.00000147
0.47559717 0.54616851 0.17810044 -0.00000568 0.00001349 -0.00000126
0.45338696 0.52333474 0.13284369 -0.00001411 0.00000457 -0.00000134
0.45939833 0.46749234 0.09671994 -0.00001321 -0.00000872 -0.00000259
0.52801889 0.47627631 0.04545454 -0.00000125 0.00000044 -0.00001773
0.46446437 0.53826821 0.15079606 -0.00000853 0.00001182 -0.00000123
0.48013049 0.45194167 0.23035486 -0.00000549 -0.00001474 -0.00000124
0.50159895 0.49901280 0.81144756 0.00001671 -0.00000071 0.00000267
0.55078995 0.48738456 0.13985865 0.00001527 -0.00000290 -0.00000223
0.50009179 0.55242991 0.32006389 0.00000038 0.00001420 -0.00000124
0.55211622 0.50252533 0.26179898 0.00001559 0.00000238 -0.00000090
0.52167028 0.54730207 0.21708310 0.00000429 0.00001410 -0.00000047
0.47935238 0.45226347 0.20725653 -0.00000634 -0.00001413 -0.00000251
0.45958197 0.46725237 0.12578604 -0.00001225 -0.00000873 -0.00000144
0.47030574 0.50576323 0.43007046 0.00001186 -0.00000774 0.00001469
0.50853670 0.46615246 0.37165740 0.00000478 -0.00001554 0.00000201
0.46540248 0.46100011 0.07149448 -0.00000951 -0.00001483 -0.00000191
0.51852047 0.47050759 0.39478666 0.00000982 -0.00001517 0.00000216
0.45973015 0.53292769 0.11540406 -0.00001271 0.00000775 -0.00000168
0.45423511 0.47460547 0.20782739 -0.00001442 -0.00000669 -0.00000160
0.52707261 0.52165937 0.32725063 -0.00000346 -0.00000394 -0.00000465
0.55073816 0.51299727 0.30274147 0.00001593 0.00000331 0.00000094
0.51120466 0.55096638 0.10961174 0.00000017 0.00001558 -0.00000144
0.55079633 0.51255733 0.19254577 0.00001491 0.00000264 -0.00000002
0.53299397 0.45976564 0.26954114 0.00000874 -0.00001315 -0.00000121
0.51658517 0.52176118 0.43007046 -0.00000590 -0.00000333 0.00001437
0.44888094 0.48991984 0.23234472 -0.00001557 -0.00000041 -0.00000142
0.49807194 0.49557489 0.73528939 0.00000454 -0.00001779 0.00000401
0.47688985 0.45328429 0.10286041 -0.00000449 -0.00001537 -0.00000283
0.53158134 0.54130518 0.07731315 0.00001133 0.00001190 -0.00000227
0.53084141 0.45811397 0.29673010 0.00001072 -0.00001159 -0.00000039
0.53338212 0.46006382 0.09675448 0.00000788 -0.00001395 -0.00000220
