0.56426609 0.64010030 0.47993991 0.00002399 -0.00001282 -0.00001216
0.52224439 0.48505995 0.24963769 0.00002745 -0.00001566 -0.00000265
0.49460489 0.33250573 0.90908009 -0.00001654 -0.00000678 0.00002654
0.49146220 0.40385467 0.92029315 -0.00001394 0.00000593 -0.00001698
0.54356670 0.62365121 0.17999198 0.00002846 0.00000331 -0.00000538
0.52422494 0.50660962 0.21308027 0.00001827 0.00000811 -0.00000365
0.51153690 0.48336130 0.58231199 0.00002398 -0.00002661 0.00000587
0.49019822 0.52367890 0.15925531 -0.00000253 0.00000634 -0.00000612
0.50614810 0.32582206 0.90816528 0.00001886 -0.00000813 0.00002545
0.50989914 0.49793082 0.91411597 0.00003214 0.00001446 0.00001182
0.49503958 0.51652139 0.49690917 -0.00000239 0.00000749 0.00000518
0.49461761 0.28636748 0.89275372 -0.00002160 -0.00000923 -0.00002665
0.49783760 0.48961848 0.93631762 -0.00000488 0.00003426 0.00002821
0.49190322 0.51439995 0.53422588 -0.00000463 0.00001327 0.00000556
0.48642990 0.68156004 0.39986947 -0.00000836 0.00002445 -0.00001192
0.47671720 0.48382965 0.18104318 -0.00002915 -0.00001255 -0.00000437
0.50458676 0.47896644 0.55061501 0.00000988 -0.00003690 0.00000568
0.54312295 0.62012112 0.14935075 0.00002947 -0.00000178 -0.00000728
0.53975743 0.59670556 0.11051085 0.00002673 -0.00001016 -0.00000330
0.56476164 0.63048309 0.50164956 -0.00002320 0.00002219 0.00000848
0.51784503 0.65983307 0.48541778 -0.00000029 0.00001110 0.00002146
0.48244512 0.47917378 0.25768176 -0.00002577 -0.00002266 -0.00000454
0.48189044 0.53894764 0.12373817 -0.00000209 0.00000531 0.00000159
0.50099397 0.52582490 0.15774034 -0.00000231 0.00000529 -0.00000762
0.46041173 0.66030049 0.39067873 -0.00002556 0.00001180 -0.00001004
0.48337722 0.49316043 0.62561309 -0.00003292 -0.00000771 0.00000625
0.46876499 0.61215532 0.08657966 -0.00003261 0.00000548 -0.00002088
0.45908135 0.60063392 0.15713562 -0.00002192 -0.00001193 -0.00000657
0.50526518 0.66133440 0.22051869 0.00000213 0.00003114 -0.00000816
0.52067119 0.50981498 0.30070010 0.00001419 0.00000960 -0.00000198
0.48789939 0.47408780 0.21195085 -0.00001864 -0.00002919 -0.00000480
0.54712403 0.61780685 0.46301246 0.00001849 -0.00001719 -0.00000558
0.49822497 0.48170540 0.69283092 -0.00000217 -0.00003404 0.00000652
0.51973009 0.49766073 0.50724655 0.00002775 -0.00000059 0.00000457
0.52710122 0.58398378 0.32428393 0.00000717 -0.00001787 -0.00000349
0.50767487 0.66035777 0.16460952 0.00000695 0.00003528 -0.00000913
0.46655527 0.56835043 0.09405719 -0.00001776 -0.00000864 0.00000227
0.49960357 0.50777084 0.89767236 -0.00000108 0.00003803 0.00000856
0.47438017 0.50613856 0.16609901 -0.00001877 0.00000721 -0.00000465
0.42719707 0.64266104 0.48963350 0.00000422 -0.00001924 -0.00002745
0.47714368 0.48864368 0.28464743 -0.00002677 -0.00001413 -0.00000070
0.51793051 0.49502364 0.57962400 0.00003112 0.00000026 0.00000631
0.47922701 0.51332057 0.19634832 -0.00001252 0.00000871 -0.00000435
0.46925327 0.68227118 0.42741892 -0.00001377 0.00001491 -0.00001126
0.49444667 0.65719688 0.13861775 -0.00000720 0.00003673 -0.00001479
0.53060031 0.56375641 0.06424799 0.00003305 0.00000359 -0.00002056
0.46433920 0.70875943 0.44921318 -0.00000160 0.00000177 -0.00002634
0.51289725 0.48137894 0.47125563 0.00002145 -0.00003074 0.00000495
0.52880168 0.55810297 0.06082158 0.00003288 -0.00000179 -0.00002572
0.52454597 0.48593476 0.14665453 0.00002590 -0.00001653 -0.00000414
0.50296175 0.51990420 0.35438135 -0.00000183 0.00000532 -0.00000111
0.54571545 0.62135690 0.29006621 0.00002837 -0.00000028 -0.00000463
0.49646360 0.42124677 0.92558187 -0.00000398 0.00000674 -0.00002027
0.46663803 0.55901051 0.07045244 -0.00003385 -0.00000299 -0.00001116
0.46646616 0.64565915 0.17613454 -0.00002667 0.00001915 -0.00000326
0.49564880 0.47093150 0.18322015 -0.00000662 -0.00003401 -0.00000355
0.47166032 0.59259164 0.42216110 -0.00001224 -0.00002068 -0.00000421
0.50233704 0.51404983 0.62632239 0.00000159 0.00002546 0.00000854
0.55992305 0.68119812 0.46091098 0.00001762 0.00000159 -0.00002240
0.49451029 0.57315356 0.17797686 -0.00000276 -0.00000972 -0.00000757
0.46303159 0.63597554 0.49861234 -0.00000070 0.00001289 0.00002358
0.54474974 0.62679029 0.28093186 0.00002854 0.00000218 -0.00000566
0.45257774 0.65707958 0.48694003 -0.00000207 0.00001226 0.00002524
0.53274459 0.59145594 0.38003758 0.00001261 -0.00001884 -0.00000263
0.49215424 0.39014357 0.90999496 -0.00001360 0.00000993 -0.00001483
0.48689732 0.48467442 0.09651060 -0.00001620 -0.00003265 -0.00001356
0.47841766 0.51552659 0.15484589 -0.00001004 0.00000886 -0.00000381
0.44099542 0.63911188 0.46937335 -0.00002411 -0.00000904 -0.00001599
0.52647287 0.49072793 0.16286175 0.00002767 -0.00000887 -0.00000259
0.52287638 0.52068436 0.14098570 0.00000756 0.00000874 0.00000280
0.49663639 0.51398253 0.62286234 -0.00000608 0.00002469 0.00000746
0.46836033 0.50094438 0.10795560 -0.00002942 -0.00001297 -0.00000320
0.54724497 0.68991417 0.45134285 0.00001626 0.00000419 -0.00002137
0.51181692 0.72773373 0.44681707 -0.00000452 0.00004472 -0.00001685
0.46174756 0.59471953 0.23653680 -0.00001731 -0.00001648 -0.00000491
0.52290368 0.50436896 0.30907971 0.00002019 0.00000723 -0.00000238
0.53841794 0.59441215 0.15991004 0.00001809 -0.00001411 -0.00000820
0.52217251 0.69915307 0.44043800 0.00000648 0.00001156 -0.00001793
0.49711829 0.51098442 0.76308954 -0.00000476 0.00003258 0.00000535
0.45990160 0.59894794 0.15305357 -0.00002022 -0.00001247 -0.00000839
0.49771667 0.35985881 0.91421247 -0.00000477 -0.00001715 0.00002050
0.54510528 0.61865163 0.25755355 0.00002796 -0.00000193 -0.00000593
0.46735641 0.64968938 0.26307780 -0.00002430 0.00001942 -0.00000741
0.53984112 0.63234639 0.14766027 0.00003059 0.00001054 -0.00000456
0.47592697 0.58027190 0.19291648 -0.00000624 -0.00001477 -0.00000634
0.51314366 0.51645052 0.33770308 0.00000440 0.00000853 -0.00000200
0.51035559 0.65983129 0.19380945 0.00000871 0.00003141 -0.00000552
0.47983623 0.50485998 0.07609402 -0.00002351 -0.00002439 -0.00001967
0.46819478 0.58582979 0.15365010 -0.00001036 -0.00001537 -0.00000652
0.46704811 0.62976295 0.11022077 -0.00002898 0.00001326 -0.00002218
0.49075106 0.48543096 0.72106874 -0.00002347 -0.00002425 0.00000647
0.54751050 0.68285489 0.44910586 0.00001460 0.00000521 -0.00001907
0.47563052 0.67562020 0.39564919 -0.00001481 0.00002205 -0.00001078
0.48474032 0.51804823 0.21798255 -0.00000667 0.00000782 -0.00000237
0.47481665 0.65310121 0.21037132 -0.00001779 0.00002444 -0.00000713
0.49175134 0.41281080 0.94393796 -0.00002818 -0.00001105 0.00002290
0.47981983 0.66197914 0.30471575 -0.00001675 0.00002489 -0.00000775
0.48714194 0.49189731 0.76930213 -0.00003228 -0.00001202 0.00000367
0.48691911 0.57685643 0.32325360 -0.00000303 -0.00001521 -0.00000426
0.50148046 0.51959860 0.37730408 -0.00000178 0.00000457 0.00000015
0.42870659 0.64694041 0.48482311 -0.00000893 -0.00001787 -0.00002657
0.47825307 0.50135905 0.39007401 -0.00002329 0.00000520 0.00000082
0.49766484 0.47868183 0.55082959 -0.00000671 -0.00003710 0.00000675
0.49943534 0.56411284 0.12367814 -0.00000228 -0.00000851 -0.00000436
0.48996997 0.43707389 0.93511456 -0.00002054 -0.00000114 -0.00001545
0.50872427 0.66292763 0.26723534 0.00000865 0.00002921 -0.00000742
0.48698643 0.50948316 0.58890295 -0.00001838 0.00001787 0.00000644
0.53522617 0.64677948 0.26792005 0.00002506 0.00001600 -0.00000565
0.50508231 0.31728879 0.89064038 0.00001565 -0.00000558 -0.00002735
0.54462332 0.63084686 0.29403913 0.00002928 0.00000482 -0.00000495
0.52280450 0.65494627 0.16429850 0.00001896 0.00003136 -0.00001005
0.51016194 0.51574212 0.44142100 0.00000253 0.00000844 0.00000130
0.49000907 0.48827359 0.79494196 -0.00002535 -0.00002158 0.00000557
0.54287195 0.64477164 0.34795865 0.00002709 0.00001061 -0.00000451
0.55200630 0.63315111 0.43895760 0.00002531 -0.00000478 -0.00000402
0.52054572 0.48533913 0.32712379 0.00002817 -0.00001746 -0.00000151
0.50930083 0.49457988 0.07891481 0.00000622 -0.00002769 -0.00003223
0.49852052 0.47764155 0.50827867 -0.00000381 -0.00003923 0.00000569
0.54222089 0.62632561 0.14721379 0.00003178 0.00000562 -0.00000889
0.47102013 0.60139960 0.47509491 -0.00001033 -0.00002270 -0.00000296
0.49469760 0.59275264 0.46417820 -0.00000224 -0.00002007 -0.00000117
0.47323620 0.66974223 0.37862626 -0.00001854 0.00002068 -0.00001181
0.46020532 0.63597828 0.17804962 -0.00002904 0.00001122 -0.00000419
0.51222801 0.66002679 0.21721324 0.00000612 0.00003162 -0.00000839
0.52452141 0.48887917 0.22015494 0.00002751 -0.00001012 -0.00000165
0.44866121 0.62064672 0.47962710 -0.00001908 -0.00002006 -0.00001104
0.49442211 0.48198181 0.66468400 -0.00001267 -0.00003284 0.00000573
0.45321339 0.62024027 0.32974267 -0.00002879 -0.00000265 -0.00000515
0.49555063 0.42218885 0.94958681 -0.00001710 -0.00000748 0.00003781
0.49772757 0.48145714 0.67845964 -0.00000361 -0.00003435 0.00000866
0.48581243 0.65185994 0.48982722 -0.00000053 0.00001163 0.00002065
0.52302009 0.57867050 0.16621634 0.00000373 -0.00001452 -0.00000688
0.42849287 0.65059412 0.49052739 0.00001814 0.00001522 0.00001325
0.51676011 0.65979671 0.25724161 0.00001037 0.00002808 -0.00000583
0.46307614 0.60639274 0.48920250 -0.00001223 -0.00002439 -0.00000536
0.47760925 0.65958208 0.28837118 -0.00001729 0.00002562 -0.00000723
0.47589877 0.50589943 0.22848636 -0.00001936 0.00000657 -0.00000219
0.48138940 0.50105256 0.53567725 -0.00002641 0.00000589 0.00000914
0.51221067 0.49199370 0.80106276 0.00002888 -0.00001258 0.00000704
0.52154779 0.66261023 0.48388189 -0.00000053 0.00001173 0.00002154
0.51209611 0.52066165 0.19722950 0.00000195 0.00000890 -0.00000371
0.49926075 0.57274163 0.18530618 -0.00000152 -0.00000969 -0.00000460
0.51183152 0.49637762 0.86740941 0.00003072 -0.00000476 0.00000574
0.46098009 0.59707296 0.20190625 -0.00001831 -0.00001529 -0.00000552
0.50106394 0.31202185 0.88968652 0.00000317 -0.00000393 -0.00003159
0.48269886 0.60655558 0.51488322 -0.00000485 0.00001271 0.00002493
0.45725632 0.65139073 0.37380493 -0.00002769 0.00001155 -0.00001001
0.46922240 0.50476176 0.13217777 -0.00002488 0.00000037 0.00000189
0.48392922 0.47823989 0.12003439 -0.00002069 -0.00003228 -0.00000463
0.45319065 0.63555175 0.35708120 -0.00002986 0.00000231 -0.00000750
0.50229156 0.47230187 0.25884026 0.00000046 -0.00003527 -0.00000136
0.46700084 0.60317641 0.46018258 -0.00001447 -0.00001921 -0.00000250
0.52418584 0.58300900 0.35249537 0.00000673 -0.00001803 -0.00000257
0.48821765 0.49548650 0.86162329 -0.00003125 -0.00000359 0.00000727
0.53972560 0.63775516 0.22827175 0.00002837 0.00001158 -0.00000556
0.54170525 0.61715305 0.12754284 0.00003080 0.00000374 -0.00000526
0.45661342 0.60837519 0.21941386 -0.00002520 -0.00001079 -0.00000566
0.55252826 0.63773239 0.43523476 0.00002644 -0.00000343 -0.00000276
0.48671812 0.48387143 0.55021667 -0.00002630 -0.00002524 0.00000640
0.46778014 0.57804942 0.07054247 -0.00003312 0.00000041 -0.00001628
0.55985665 0.66661769 0.48166582 0.00000143 0.00001446 0.00002792
0.53125328 0.58587164 0.25478822 0.00001087 -0.00001683 -0.00000552
0.48128116 0.51141089 0.32537240 -0.00001273 0.00000890 -0.00000322
0.52037388 0.59725571 0.47059822 0.00000618 -0.00002058 -0.00000094
0.56500173 0.69540477 0.46308520 0.00001451 -0.00000297 -0.00001287
0.47896147 0.57828861 0.19195168 -0.00000613 -0.00001323 -0.00000626
0.46239775 0.65405512 0.48861322 -0.00000064 0.00001314 0.00002261
0.50871700 0.51824558 0.36012840 0.00000068 0.00000701 -0.00000126
0.44973513 0.63093501 0.39739057 -0.00003033 -0.00000336 -0.00000574
0.49882877 0.66726518 0.30927336 -0.00000229 0.00002998 -0.00000946
0.52406305 0.49180365 0.27899858 0.00002750 -0.00000806 -0.00000126
0.45500934 0.64402956 0.36781418 -0.00002798 0.00000778 -0.00000814
0.49038005 0.46276650 0.93215191 -0.00001727 -0.00000913 -0.00001481
0.52793324 0.51788998 0.07537564 0.00002959 -0.00000926 -0.00002236
0.49484316 0.51976687 0.34707114 -0.00000288 0.00000478 -0.00000220
0.49452943 0.51962775 0.35153508 -0.00000308 0.00000483 -0.00000113
0.47608972 0.49172273 0.28292423 -0.00002787 -0.00000669 -0.00000333
0.51234621 0.66286308 0.27565765 0.00000753 0.00003035 -0.00000833
0.55931652 0.62834430 0.50283259 -0.00002088 0.00002355 0.00001537
0.52366120 0.49649313 0.32594892 0.00002646 -0.00000091 -0.00000225
0.56515265 0.65965575 0.46983525 0.00002066 -0.00000304 -0.00001942
0.46419281 0.58098119 0.09741630 -0.00002140 -0.00001037 -0.00000255
0.54090774 0.63294923 0.16256532 0.00003041 0.00000859 -0.00000970
0.45036077 0.63494712 0.39552099 -0.00002939 -0.00000129 -0.00000556
0.50275260 0.51163095 0.73459250 0.00000358 0.00002994 0.00000601
0.50593257 0.65003854 0.11639067 0.00000644 0.00003636 -0.00001302
0.50271624 0.51566029 0.55023581 0.00000168 0.00001370 0.00000903
0.49277255 0.51760352 0.41291583 -0.00000418 0.00000556 0.00000141
0.51968551 0.51293498 0.24919577 0.00001058 0.00001019 -0.00000396
0.49682185 0.52291232 0.21489260 -0.00000252 0.00000492 -0.00000346
0.51424307 0.48091426 0.41634947 0.00002526 -0.00002658 0.00000022
0.44814560 0.65664130 0.44034526 -0.00002495 0.00000197 -0.00001161
0.47146934 0.65720236 0.31039184 -0.00001994 0.00002185 -0.00000760
0.46635705 0.55343896 0.09031888 -0.00002106 -0.00000537 0.00000454
0.49788308 0.47939295 0.58474898 -0.00000533 -0.00003813 0.00000690
0.52083856 0.58230156 0.36354390 0.00000519 -0.00001730 -0.00000185
0.50096214 0.47137070 0.22416426 -0.00000141 -0.00003500 -0.00000286
0.51395935 0.50087619 0.75253659 0.00003178 0.00000765 0.00000404
0.44210574 0.67618579 0.45895040 -0.00002060 -0.00000219 -0.00002207
0.55580103 0.67511278 0.45611781 0.00001608 -0.00000214 -0.00002009
0.55359495 0.68324411 0.45513210 0.00001320 0.00000413 -0.00002354
0.50484413 0.44446597 0.93095613 0.00000900 -0.00000151 -0.00001836
0.52953917 0.67855918 0.41597667 0.00001525 0.00001766 -0.00001069
0.49462125 0.66138530 0.22173266 -0.00000610 0.00003055 -0.00000849
0.52560532 0.57555330 0.12858953 0.00000487 -0.00001367 -0.00000337
0.45628333 0.61009109 0.16728209 -0.00002708 -0.00000669 -0.00000593
0.46634793 0.65203732 0.30348539 -0.00002294 0.00002014 -0.00000730
0.53570086 0.59542519 0.39776340 0.00001532 -0.00001875 -0.00000164
0.51980191 0.49357322 0.48503134 0.00002977 -0.00000514 0.00000396
0.51075119 0.50939852 0.66345727 0.00001818 0.00002232 0.00000738
0.54614288 0.64323574 0.37445056 0.00002632 0.00000865 -0.00000750
0.52836609 0.65063053 0.18253632 0.00002140 0.00002327 -0.00000692
0.50944811 0.59189421 0.45716450 0.00000118 -0.00001959 0.00000001
0.50463587 0.71610421 0.44481194 -0.00000130 0.00000905 -0.00002576
0.47935703 0.56800026 0.05406607 -0.00002388 0.00000591 -0.00003342
0.50193870 0.66999775 0.33385566 0.00000004 0.00003000 -0.00000816
0.57356137 0.68514740 0.47141662 0.00002263 0.00002670 0.00000278
0.53414768 0.67257935 0.40919206 0.00001818 0.00001851 -0.00000936
0.47842130 0.48189819 0.13920793 -0.00002527 -0.00001967 -0.00000485
0.50169772 0.47042501 0.16369927 0.00000133 -0.00003692 -0.00000481
0.51481414 0.57594526 0.20872724 -0.00000005 -0.00001294 -0.00000674
0.52292097 0.57961166 0.28034443 0.00000599 -0.00001631 -0.00000469
0.48982808 0.72871131 0.44732356 -0.00000086 0.00004733 -0.00000267
0.54821342 0.67107069 0.44208026 0.00001878 0.00000828 -0.00001396
0.47081190 0.65416521 0.28344619 -0.00002174 0.00002063 -0.00000771
0.45156202 0.61823702 0.41367602 -0.00002724 -0.00001100 -0.00000436
0.43322057 0.62400496 0.50386560 -0.00003100 -0.00001483 0.00001936
0.47636527 0.50354058 0.29005983 -0.00002192 0.00000477 -0.00000285
0.46185398 0.60062116 0.41756618 -0.00001839 -0.00001902 -0.00000230
0.49792853 0.57356548 0.27203938 0.00000045 -0.00001237 -0.00000516
0.54011661 0.63460791 0.19955468 0.00002705 0.00000983 -0.00000703
0.50869787 0.52497828 0.15341642 -0.00000090 0.00000607 -0.00000458
0.47137931 0.54669166 0.10201941 -0.00001001 0.00000199 0.00000661
0.48082653 0.47884732 0.19263820 -0.00002500 -0.00002164 -0.00000388
0.44323242 0.65863550 0.48607981 0.00000146 0.00001485 0.00002601
0.55785704 0.68080348 0.47382000 0.00000689 0.00001869 0.00002658
0.52987742 0.51217300 0.08364247 0.00003136 -0.00001612 -0.00001333
0.51900715 0.50776172 0.41566747 0.00001551 0.00000919 0.00000167
0.52004558 0.49066424 0.44290233 0.00003023 -0.00001042 0.00000040
0.47533497 0.49493182 0.26784551 -0.00002697 -0.00000245 -0.00000198
0.52356839 0.51050431 0.17241898 0.00001356 0.00001123 -0.00000516
0.48374552 0.51655054 0.24484456 -0.00000754 0.00000871 -0.00000452
0.46841761 0.55630434 0.09547666 -0.00001371 -0.00000683 0.00000851
0.53874439 0.70128191 0.46249413 -0.00000234 0.00001719 0.00002449
0.53128600 0.59980911 0.50964087 0.00000556 -0.00001852 -0.00002326
0.51950270 0.48223007 0.27796283 0.00002596 -0.00001966 -0.00000054
0.49228787 0.66129988 0.23084974 -0.00000956 0.00003037 -0.00000421
0.50976181 0.57443208 0.25634867 -0.00000000 -0.00001260 -0.00000517
0.47270969 0.49533281 0.15275259 -0.00002640 -0.00000090 -0.00000606
0.48797122 0.50935942 0.62733543 -0.00001968 0.00002046 0.00000765
0.45835024 0.60454136 0.41064334 -0.00002102 -0.00001738 -0.00000576
0.53825343 0.59520054 0.32172319 0.00001800 -0.00001470 -0.00000421
0.50346643 0.51966143 0.36243543 -0.00000193 0.00000536 -0.00000159
0.46919236 0.49807450 0.11172756 -0.00002999 -0.00001024 -0.00000925
0.52350652 0.57901973 0.16072026 0.00000395 -0.00001406 -0.00000743
0.48291799 0.51277131 0.34722391 -0.00001046 0.00000927 -0.00000158
0.56948298 0.63265914 0.49632263 -0.00000330 -0.00000738 -0.00003075
0.47999534 0.48698685 0.37702492 -0.00002918 -0.00001605 -0.00000035
0.48094472 0.49273390 0.51154959 -0.00003085 -0.00000623 0.00000757
0.49734202 0.51893938 0.05776529 -0.00000559 -0.00002083 -0.00003666
0.46176124 0.66132170 0.48459479 -0.00000096 0.00001107 0.00002405
0.46929875 0.67676687 0.41354418 -0.00001691 0.00001832 -0.00001019
0.44928592 0.63471878 0.40765071 -0.00002956 -0.00000149 -0.00000857
0.55125970 0.66788530 0.44683796 0.00001953 0.00000476 -0.00001177
0.48348540 0.47729233 0.13898151 -0.00002098 -0.00002739 -0.00000554
0.46987709 0.55439472 0.06316041 -0.00003320 -0.00000606 -0.00002195
0.48950255 0.57399106 0.22756521 -0.00000360 -0.00001171 -0.00000522
0.45178300 0.61748677 0.40467986 -0.00002658 -0.00001192 -0.00000506
0.50338548 0.28365761 0.89167702 0.00001787 -0.00000357 -0.00003354
0.55051500 0.63416958 0.40447712 0.00002827 -0.00000236 -0.00000833
0.46588874 0.51172012 0.11210401 -0.00002852 0.00000100 0.00000035
0.51923811 0.49717608 0.08313325 0.00001900 -0.00002548 -0.00002462
0.46583146 0.59609723 0.08254034 -0.00003173 0.00000019 -0.00001484
0.50517237 0.57340449 0.18829973 -0.00000152 -0.00001013 -0.00000621
0.46866494 0.58573884 0.23409976 -0.00001320 -0.00001549 -0.00000371
0.45656338 0.61211073 0.20089507 -0.00002584 -0.00000592 -0.00000634
0.51791501 0.55542588 0.05035413 0.00001914 -0.00000633 -0.00004296
0.48412108 0.51131636 0.43225482 -0.00001096 0.00000899 0.00000187
0.53592724 0.59381288 0.08611499 0.00003269 -0.00000392 -0.00001182
0.48385277 0.50344050 0.61171651 -0.00002822 0.00000933 0.00000774
0.45793289 0.60198611 0.32680461 -0.00002028 -0.00001738 -0.00000590
0.47832671 0.50728428 0.30777204 -0.00001772 0.00000698 -0.00000360
0.47451931 0.58367008 0.34533975 -0.00000859 -0.00001763 -0.00000274
0.44022885 0.65043044 0.46270964 -0.00002532 -0.00000744 -0.00001463
0.54519534 0.61325198 0.29498941 0.00002575 -0.00000756 -0.00000180
0.51181787 0.64815348 0.49187684 -0.00000169 0.00001123 0.00002074
0.53831071 0.59458762 0.26885578 0.00001814 -0.00001499 -0.00000499
0.46160117 0.59472227 0.23233379 -0.00001782 -0.00001583 -0.00000480
0.54786879 0.61914539 0.37367582 0.00002619 -0.00000764 -0.00000261
0.47588965 0.48511726 0.13514225 -0.00002760 -0.00001574 -0.00000484
0.50621176 0.52854025 0.14670636 -0.00000226 0.00000424 -0.00000148
0.51491690 0.70493925 0.44139010 0.00000394 0.00000579 -0.00002345
0.45932782 0.60086578 0.11639249 -0.00002749 -0.00000760 -0.00000686
0.47685087 0.57929981 0.22194909 -0.00000599 -0.00001541 -0.00000543
0.47036359 0.65075511 0.23441528 -0.00002243 0.00002132 -0.00000647
0.45091000 0.63626379 0.39027679 -0.00002944 -0.00000003 -0.00000633
0.51672924 0.49032325 0.57849544 0.00002967 -0.00001220 0.00000618
0.53417408 0.58329087 0.07740620 0.00003202 0.00000124 -0.00001201
0.47936699 0.59411573 0.45135650 -0.00000640 -0.00002083 0.00000023
0.49689737 0.66749609 0.31422293 -0.00000312 0.00002896 -0.00001046
0.46332255 0.62880450 0.11756464 -0.00003563 0.00001280 -0.00001095
0.47611883 0.58043736 0.28249866 -0.00000817 -0.00001577 -0.00000278
0.52424496 0.65039682 0.14052100 0.00002184 0.00003007 -0.00001052
0.50873154 0.48386601 0.67975545 0.00002054 -0.00002691 0.00000919
0.47385186 0.70482469 0.46053448 0.00000379 0.00001482 0.00002698
0.48936069 0.65989673 0.20856266 -0.00001018 0.00002972 -0.00000650
0.54055220 0.60021013 0.18843250 0.00002022 -0.00001156 -0.00000596
0.52622825 0.49442437 0.19569816 0.00002657 -0.00000443 -0.00000530
0.53893906 0.60633826 0.49818134 0.00000942 -0.00002309 -0.00001078
0.45668980 0.62587458 0.17591538 -0.00003004 0.00000432 -0.00000741
0.46996078 0.51612222 0.08053252 -0.00003141 -0.00001175 -0.00001545
0.50918353 0.52005422 0.27466920 0.00000049 0.00000697 -0.00000264
0.48898879 0.49812448 0.07619675 -0.00001448 -0.00002762 -0.00002647
0.53373945 0.61309463 0.09121003 0.00003216 0.00000808 -0.00002180
0.47175217 0.69069892 0.46834666 -0.00000006 0.00001378 0.00002468
0.51795322 0.59396935 0.45599690 0.00000630 -0.00001947 0.00000061
0.51259714 0.52065712 0.05947211 0.00001246 -0.00001973 -0.00003471
0.53767049 0.64278650 0.25800183 0.00002591 0.00001482 -0.00000677
0.49988362 0.65815902 0.48634350 0.00000068 0.00001162 0.00002046
0.45041171 0.63180804 0.38968390 -0.00002983 -0.00000244 -0.00000639
0.50872791 0.51226568 0.61517018 0.00001208 0.00002246 0.00000715
0.49846780 0.36404997 0.91686308 -0.00000295 -0.00002095 0.00001959
0.46796206 0.59412390 0.41152361 -0.00001297 -0.00002012 -0.00000241
0.49587160 0.47511628 0.11370720 -0.00000658 -0.00003917 -0.00001267
0.53718853 0.64692223 0.49255797 0.00000099 0.00001225 0.00002309
0.50660640 0.48471898 0.76450711 0.00001455 -0.00003010 0.00000547
0.49150857 0.51320684 0.57817715 -0.00001065 0.00001806 0.00000646
0.52518064 0.49021140 0.21559553 0.00002791 -0.00000847 -0.00000137
0.53814340 0.69301045 0.44578674 0.00001100 0.00000733 -0.00002059
0.48578608 0.70407540 0.44079354 -0.00000280 0.00000779 -0.00002315
0.54210085 0.63798887 0.29693538 0.00002588 0.00001282 -0.00000757
0.51991463 0.72459382 0.44960144 0.00000395 0.00001068 0.00001812
0.48872054 0.57646722 0.05055145 -0.00001416 -0.00000253 -0.00004286
0.49390379 0.59204334 0.46011254 -0.00000254 -0.00001979 -0.00000014
0.51364923 0.69178742 0.46774471 0.00000108 0.00001319 0.00002375
0.50365740 0.56714553 0.13099109 -0.00000169 -0.00000824 -0.00000530
0.49055648 0.36248043 0.91117156 -0.00001963 -0.00001327 0.00001643
0.53621286 0.58657819 0.12147116 0.00001574 -0.00001676 -0.00000147
0.47813120 0.57909065 0.27681345 -0.00000752 -0.00001473 -0.00000542
0.48161492 0.49042967 0.50722927 -0.00003087 -0.00001172 0.00000512
0.50445855 0.65137529 0.11986526 0.00000507 0.00003399 -0.00001800
0.51619184 0.67227930 0.36651108 0.00000883 0.00002582 -0.00000854
0.54222816 0.60257083 0.29098192 0.00002133 -0.00001295 -0.00000485
0.51129955 0.49440894 0.91209543 0.00003269 0.00000169 0.00000500
0.51937449 0.49277937 0.49981993 0.00003095 -0.00000728 0.00000449
0.48833317 0.48435339 0.61347610 -0.00002303 -0.00002732 0.00000756
0.47263333 0.70910132 0.45816931 0.00000117 0.00002103 0.00002451
0.51815593 0.48534548 0.41512188 0.00002793 -0.00002015 0.00000240
0.51375479 0.50877291 0.58374333 0.00001769 0.00001567 0.00000510
0.47626436 0.68215293 0.47307342 -0.00000156 0.00001080 0.00002430
0.53098041 0.52404535 0.07800818 0.00003099 -0.00000444 -0.00001520
0.51022464 0.65705866 0.14222874 0.00000903 0.00003707 -0.00001163
0.48008358 0.49698418 0.49795401 -0.00002883 -0.00000066 0.00000536
0.46444374 0.67263663 0.47833675 -0.00000104 0.00001122 0.00002442
0.53782141 0.64121610 0.23474993 0.00002620 0.00001588 -0.00000395
0.47724009 0.59229523 0.06332047 -0.00002635 0.00000853 -0.00002955
0.45184392 0.65163440 0.41237929 -0.00002865 0.00000401 -0.00000999
0.53496611 0.64340854 0.19812429 0.00002395 0.00001777 -0.00000706
0.52343017 0.67764437 0.40090337 0.00001301 0.00002167 -0.00001173
0.53979474 0.60919356 0.47408554 0.00001345 -0.00002004 -0.00000362
0.48377094 0.47619206 0.18552534 -0.00002130 -0.00002606 -0.00000438
0.53239995 0.64818442 0.22366412 0.00002575 0.00001970 -0.00000643
0.52151507 0.48261750 0.21509539 0.00002545 -0.00001932 -0.00000384
0.49507231 0.59122401 0.05387693 -0.00000871 0.00002221 -0.00003626
0.50689828 0.35106635 0.88998932 0.00001801 -0.00000557 -0.00002317
0.47866681 0.48863369 0.34950456 -0.00003016 -0.00001203 -0.00000056
0.51962733 0.50608766 0.41871560 0.00001740 0.00000775 0.00000201
0.48187315 0.49530098 0.56972027 -0.00003161 -0.00000237 0.00000717
0.54615104 0.71251595 0.45340616 0.00001650 0.00001257 -0.00001686
0.45607147 0.60857522 0.26213846 -0.00002535 -0.00001077 -0.00000527
0.52129960 0.52402532 0.06336591 0.00002382 -0.00001888 -0.00002615
0.48656082 0.48326856 0.52379662 -0.00002686 -0.00002622 0.00000770
0.50676006 0.39448115 0.91209817 0.00001095 0.00001032 -0.00001545
0.48519772 0.58415204 0.05340590 -0.00001917 0.00001012 -0.00004092
0.49507409 0.47732872 0.47313711 -0.00000892 -0.00003890 0.00000539
0.45757914 0.61661834 0.13577786 -0.00003006 -0.00000200 -0.00000896
0.54236364 0.60741854 0.13765658 0.00002672 -0.00000505 -0.00000469
0.48843044 0.51875931 0.28671890 -0.00000514 0.00000665 -0.00000329
0.51649821 0.64028674 0.49622804 0.00000067 0.00001113 0.00002118
0.49714199 0.47814167 0.91471165 -0.00000385 -0.00001589 -0.00000987
0.50788581 0.47346586 0.26091993 0.00001024 -0.00003378 -0.00000123
0.49446031 0.66058058 0.18162607 -0.00000552 0.00003158 -0.00000687
0.54751509 0.61592454 0.41412067 0.00002483 -0.00001113 -0.00000263
0.48964623 0.66101706 0.23861191 -0.00000818 0.00002985 -0.00000610
0.53456599 0.66870552 0.39831904 0.00001970 0.00001742 -0.00001115
0.48279890 0.51454455 0.29171303 -0.00000984 0.00000805 -0.00000141
0.53662562 0.64163345 0.21192630 0.00002605 0.00001441 -0.00000881
0.49886698 0.68110901 0.39203182 -0.00000187 0.00002579 -0.00001228
0.45761734 0.63876635 0.30852044 -0.00002732 0.00001096 -0.00000570
0.49593800 0.66485536 0.28669167 -0.00000241 0.00002949 -0.00000831
0.48065829 0.48452890 0.34655645 -0.00002871 -0.00001806 -0.00000084
0.48904514 0.47738877 0.37330481 -0.00002206 -0.00003136 0.00000016
0.47400552 0.66086793 0.32525235 -0.00001711 0.00002444 -0.00000918
0.52536619 0.50193918 0.22329582 0.00002222 0.00000502 -0.00000294
0.50191236 0.51795733 0.44989246 -0.00000023 0.00000530 0.00000277
0.50401026 0.48097250 0.64609426 0.00000739 -0.00003422 0.00000743
0.50461859 0.33452904 0.88955736 0.00000921 -0.00000773 -0.00002705
0.50893342 0.40293804 0.93881929 0.00002878 -0.00001471 0.00001760
0.54054856 0.59903073 0.26128274 0.00002024 -0.00001280 -0.00000596
0.50928444 0.51343966 0.55523628 0.00000806 0.00001545 0.00000796
0.46667346 0.52314597 0.08723801 -0.00003061 -0.00000215 -0.00000826
0.50726390 0.66417789 0.28289422 0.00000131 0.00002964 -0.00000697
0.53139782 0.56745285 0.09987152 0.00001236 -0.00000930 0.00000520
0.51050383 0.47746605 0.38558003 0.00001863 -0.00003229 0.00000082
0.51128584 0.50151360 0.85578436 0.00002990 0.00001188 0.00000453
0.47775748 0.48277295 0.12060456 -0.00002866 -0.00002507 -0.00000213
0.52627641 0.60071480 0.07078800 0.00003075 0.00000746 -0.00002877
0.48941252 0.61201704 0.51186240 -0.00000183 0.00001514 0.00002170
0.45899865 0.72023165 0.45201394 -0.00002835 0.00003873 0.00000001
0.47479209 0.65934658 0.30643168 -0.00001811 0.00002405 -0.00000798
0.48358819 0.49276850 0.63292515 -0.00003294 -0.00000929 0.00000777
0.48258248 0.50386703 0.54990023 -0.00002352 0.00000935 0.00000706
0.50810224 0.47429150 0.12592332 0.00000589 -0.00003634 -0.00000673
0.53447139 0.62613642 0.10835297 0.00003075 0.00001377 -0.00001628
0.47369546 0.58368647 0.33091938 -0.00000971 -0.00001697 -0.00000527
0.54176980 0.67422622 0.43381709 0.00001763 0.00000999 -0.00001059
0.45866218 0.60132229 0.17450409 -0.00002188 -0.00001240 -0.00000657
0.47022900 0.58444399 0.23171090 -0.00001230 -0.00001460 -0.00000464
0.47816217 0.68896484 0.42910483 -0.00000901 0.00001520 -0.00001198
0.52763134 0.62526530 0.09281138 0.00002822 0.00002220 -0.00002159
0.50671095 0.48786074 0.88323379 0.00001434 -0.00002304 0.00000648
0.51301271 0.66408157 0.48306805 -0.00000025 0.00001108 0.00002140
0.53472149 0.58981180 0.23143810 0.00001497 -0.00001441 -0.00000492
0.57544917 0.67185736 0.47605428 0.00002125 -0.00000640 -0.00000342
0.51395845 0.57983357 0.36835343 0.00000273 -0.00001652 -0.00000211
0.49825227 0.49288940 0.07915123 -0.00000150 -0.00003166 -0.00002707
0.49284258 0.56305802 0.11969338 -0.00000217 -0.00000916 -0.00000257
0.51584166 0.59572434 0.47320345 0.00000404 -0.00002126 -0.00000000
0.45028439 0.65588015 0.43075621 -0.00002611 0.00000315 -0.00001013
0.49261251 0.61316377 0.51122856 -0.00000141 0.00001576 0.00002089
0.47278881 0.53490657 0.11514848 -0.00001022 0.00000853 0.00000184
0.53385216 0.50952947 0.10969333 0.00002913 -0.00000382 -0.00000101
0.50504875 0.47873002 0.53605455 0.00000671 -0.00003911 0.00000732
0.50864971 0.51028699 0.69007373 0.00001552 0.00002376 0.00000650
0.52509701 0.65286022 0.16215247 0.00002089 0.00002756 -0.00001137
0.49340639 0.40108299 0.91664046 -0.00000998 0.00000921 -0.00001701
0.49711558 0.52142918 0.28463197 -0.00000251 0.00000413 -0.00000213
0.49180409 0.47149894 0.17038749 -0.00001426 -0.00003378 -0.00000036
0.47017813 0.57829136 0.12465206 -0.00000829 -0.00001572 -0.00000080
0.46275875 0.65120983 0.33332461 -0.00002627 0.00001416 -0.00000611
0.51648277 0.50631768 0.54901183 0.00001918 0.00001115 0.00000762
0.48901880 0.47863635 0.42289677 -0.00002281 -0.00003127 0.00000342
0.47667080 0.51083529 0.17243716 -0.00001419 0.00001005 -0.00000534
0.47454932 0.58706832 0.39464253 -0.00000967 -0.00001980 -0.00000294
0.55907917 0.64680946 0.49262068 0.00000087 0.00001614 0.00002553
0.46780562 0.53261411 0.10297966 -0.00001814 0.00000549 0.00000268
0.51470679 0.47567189 0.21084239 0.00001703 -0.00002842 -0.00000096
0.47672904 0.48731694 0.24340868 -0.00002840 -0.00001118 -0.00000324
0.49843961 0.62826794 0.07980414 -0.00000329 0.00002454 -0.00003795
0.45879129 0.60011375 0.30023903 -0.00001987 -0.00001622 -0.00000629
0.48507589 0.47818258 0.11486296 -0.00002002 -0.00003339 -0.00001297
0.53368485 0.58798224 0.16819234 0.00001103 -0.00001693 -0.00000644
0.48734832 0.50885928 0.61968875 -0.00001959 0.00002009 0.00000529
0.43156829 0.65785706 0.48650989 0.00000789 0.00001356 0.00002091
0.53266364 0.50392061 0.11752735 0.00002892 -0.00000353 -0.00000482
0.53292370 0.65087241 0.28116918 0.00002221 0.00002040 -0.00000667
0.48366368 0.68561298 0.41600120 -0.00000879 0.00002008 -0.00001290
0.47281608 0.59128857 0.41904023 -0.00001194 -0.00002026 -0.00000271
0.53180063 0.72270238 0.44964603 0.00001742 0.00002670 -0.00000982
0.49211964 0.66698599 0.31532231 -0.00001029 0.00002813 -0.00000760
0.45912138 0.66403878 0.40760612 -0.00002531 0.00001073 -0.00001116
0.52587175 0.48890650 0.11207490 0.00002907 -0.00001904 -0.00001260
0.46263421 0.58907342 0.12030629 -0.00001837 -0.00001482 -0.00000354
0.48825133 0.48215824 0.53057855 -0.00002504 -0.00002822 0.00000879
0.50316089 0.68465549 0.40485629 0.00000069 0.00002451 -0.00001139
0.47484028 0.49903294 0.24756075 -0.00002491 0.00000121 -0.00000168
0.47615340 0.48961392 0.25954956 -0.00002847 -0.00001041 -0.00000521
0.52945733 0.58413023 0.23096524 0.00000919 -0.00001669 -0.00000564
0.52043480 0.56750196 0.11687534 -0.00000125 -0.00001228 -0.00000092
0.51141864 0.48906472 0.92272383 0.00003345 0.00000091 0.00000580
0.48109567 0.51183283 0.30670992 -0.00001321 0.00000782 -0.00000404
0.52343470 0.71041715 0.44611049 0.00001057 0.00000683 -0.00002564
0.48400649 0.50574571 0.57755792 -0.00002207 0.00001503 0.00000542
0.45910227 0.65228552 0.36613372 -0.00002790 0.00001114 -0.00000835
0.46689537 0.67748886 0.42094532 -0.00001601 0.00001571 -0.00001301
0.45867854 0.60602909 0.51517427 -0.00000171 0.00001416 0.00001959
0.45660615 0.60528606 0.30671176 -0.00002408 -0.00001113 -0.00000321
0.46299887 0.58577073 0.10232221 -0.00002206 -0.00001457 -0.00000321
0.50975913 0.36137557 0.91015583 0.00002034 -0.00001298 0.00001352
0.51106125 0.65967304 0.16282448 0.00001218 0.00003560 -0.00000958
0.52260447 0.57924342 0.20008029 0.00000430 -0.00001466 -0.00000539
0.51221162 0.50370055 0.77767813 0.00002776 0.00001592 0.00000609
0.52428859 0.50684512 0.20624109 0.00001854 0.00000728 -0.00000416
0.50289631 0.39493856 0.93894571 0.00000990 -0.00002092 0.00003062
0.55175620 0.63242543 0.43543842 0.00002550 -0.00000625 -0.00000343
0.50717199 0.57339001 0.17875072 0.00000057 -0.00001010 -0.00000639
0.54450327 0.61785328 0.21822715 0.00002803 -0.00000289 -0.00000680
0.52605087 0.52151006 0.07030875 0.00002608 -0.00001132 -0.00002612
0.50534332 0.57288164 0.16895984 -0.00000103 -0.00000974 -0.00000793
0.49707103 0.47051227 0.17259264 -0.00000466 -0.00003518 -0.00000098
0.49440575 0.58808678 0.05229011 -0.00001016 0.00001471 -0.00004159
0.50794858 0.53029704 0.14337726 -0.00000104 0.00000474 -0.00000183
0.50771034 0.57687736 0.34346834 0.00000065 -0.00001472 -0.00000335
0.48410925 0.50895023 0.49832046 -0.00001397 0.00001036 0.00000550
0.51018101 0.67741430 0.38169351 0.00000707 0.00002622 -0.00000969
0.47539318 0.51367700 0.14672728 -0.00001287 0.00000670 -0.00000084
0.51029652 0.48039594 0.50832146 0.00001915 -0.00003310 0.00000490
0.49410114 0.69237846 0.42649141 -0.00000076 0.00001750 -0.00001235
0.52190429 0.49407247 0.39173448 0.00002943 -0.00000215 -0.00000136
0.52063215 0.66555196 0.33687830 0.00001536 0.00002445 -0.00001009
0.46179760 0.62707764 0.12290339 -0.00003179 0.00001082 -0.00000995
0.50585437 0.47932565 0.54727042 0.00001056 -0.00003633 0.00000764
0.55336940 0.64639753 0.44307691 0.00002360 -0.00000325 -0.00000890
0.50362831 0.40285894 0.91615206 0.00000513 0.00000982 -0.00001736
0.48704186 0.57597798 0.29937336 -0.00000424 -0.00001409 -0.00000517
0.45491746 0.61021292 0.41072157 -0.00002415 -0.00001483 -0.00000539
0.51833421 0.70472282 0.44226396 0.00000711 0.00000396 -0.00002391
0.49193689 0.47191358 0.19044943 -0.00001163 -0.00003248 -0.00000304
0.46838665 0.58639449 0.19830890 -0.00001138 -0.00001652 -0.00000573
0.49825591 0.51583856 0.54761052 -0.00000282 0.00001359 0.00000815
0.56325668 0.64219636 0.47656712 0.00002321 -0.00000976 -0.00001228
0.48805851 0.49612397 0.85820961 -0.00003197 -0.00000264 0.00000637
0.54868811 0.61863345 0.41042602 0.00002650 -0.00000929 -0.00000487
0.49642724 0.57815677 0.04920653 -0.00000696 0.00000212 -0.00004459
0.52244991 0.65631753 0.23560381 0.00001503 0.00002729 -0.00000535
0.54208714 0.60189605 0.32796037 0.00002024 -0.00001496 -0.00000323
0.48273614 0.60275453 0.06440986 -0.00002309 0.00001179 -0.00003563
0.45744368 0.63064498 0.23872013 -0.00002867 0.00000459 -0.00000568
0.49484131 0.66252470 0.25383794 -0.00000536 0.00002955 -0.00000532
0.46345988 0.58694828 0.11816752 -0.00001768 -0.00001354 -0.00000042
0.53447688 0.59841967 0.51938272 0.00000492 -0.00002447 0.00003738
0.46578506 0.57138216 0.09473101 -0.00001943 -0.00001001 0.00000188
0.44003245 0.64013308 0.49631265 -0.00000384 0.00001321 0.00003040
0.48898879 0.48802081 0.75039786 -0.00002616 -0.00002196 0.00000309
0.55096054 0.60960186 0.51319826 0.00000085 -0.00000416 0.00001871
0.49054283 0.69361341 0.42964864 -0.00000245 0.00001544 -0.00001379
0.53281820 0.59964818 0.44231671 0.00001186 -0.00002029 0.00000049
0.49244881 0.51896125 0.34922174 -0.00000402 0.00000536 -0.00000164
0.49795038 0.52206933 0.26034069 -0.00000222 0.00000444 -0.00000349
0.44797918 0.64126974 0.42961228 -0.00002843 -0.00000191 -0.00000760
0.50638086 0.48239374 0.66906887 0.00001455 -0.00003078 0.00000727
0.52199608 0.57130939 0.05567107 0.00002513 0.00000102 -0.00003317
0.51094675 0.47300568 0.18713124 0.00001201 -0.00003146 -0.00000207
0.50316817 0.57333809 0.21308300 -0.00000055 -0.00001063 -0.00000716
0.51736391 0.48459345 0.42295316 0.00002920 -0.00002030 0.00000253
0.52174151 0.48984763 0.35601270 0.00002890 -0.00001196 -0.00000064
0.47199678 0.58932626 0.39734873 -0.00001100 -0.00001951 -0.00000322
0.50577980 0.52088445 0.29243052 -0.00000029 0.00000527 -0.00000250
0.48804122 0.49851099 0.85577077 -0.00003213 0.00000535 0.00000685
0.46273419 0.66558927 0.39797801 -0.00002192 0.00001618 -0.00000902
0.50525326 0.43468958 0.95220393 0.00001941 -0.00000700 0.00003647
0.51185971 0.51012236 0.60572124 0.00001572 0.00001944 0.00000760
0.49436119 0.70968056 0.44282776 -0.00000286 0.00000728 -0.00002524
0.49614349 0.50106442 0.07077526 -0.00000789 -0.00002976 -0.00002865
0.52822965 0.66009587 0.33196151 0.00001493 0.00002499 -0.00000682
0.50749844 0.28923735 0.90427512 0.00003312 -0.00001192 0.00002001
0.54006207 0.59912533 0.19155337 0.00001900 -0.00001354 -0.00000573
0.44289324 0.68361241 0.47226596 -0.00000553 0.00001676 0.00002647
0.52650285 0.49211466 0.16909805 0.00002724 -0.00000496 -0.00000247
0.54002482 0.60765129 0.44732538 0.00001689 -0.00001729 0.00000084
0.44613960 0.61709940 0.49727744 -0.00001819 -0.00001988 -0.00000978
0.53935462 0.59671187 0.17937636 0.00001852 -0.00001400 -0.00000567
0.52005374 0.48912472 0.41528645 0.00002859 -0.00001370 0.00000195
0.46652436 0.60088944 0.44567308 -0.00001477 -0.00001995 0.00000016
0.47476575 0.58125490 0.26321328 -0.00000693 -0.00001656 -0.00000494
0.47966257 0.48496631 0.32239246 -0.00002823 -0.00001730 -0.00000474
0.46505123 0.64431334 0.21834718 -0.00002529 0.00001641 -0.00000875
0.49135855 0.48215461 0.61785370 -0.00001821 -0.00003222 0.00000588
0.47614703 0.49189731 0.28659344 -0.00002769 -0.00000714 0.00000028
0.47801572 0.64365405 0.11463835 -0.00002429 0.00002948 -0.00001578
0.50712019 0.68586308 0.41037601 0.00000479 0.00002222 -0.00001299
0.51827967 0.50791448 0.44184202 0.00001528 0.00000919 0.00000219
0.46058908 0.59709018 0.21874274 -0.00001914 -0.00001484 -0.00000713
0.54004657 0.64897281 0.34189609 0.00002503 0.00001597 -0.00000658
0.50537968 0.57686007 0.34860250 -0.00000020 -0.00001470 -0.00000240
0.48580787 0.57540691 0.21842358 -0.00000293 -0.00001271 -0.00000697
0.53305012 0.69037068 0.46852857 -0.00000207 0.00001529 0.00002407
0.46752101 0.64810622 0.22651945 -0.00002474 0.00002058 -0.00000587
0.50506139 0.48692864 0.88626832 0.00000904 -0.00002455 0.00000733
0.55153251 0.64183170 0.42448446 0.00002714 -0.00000014 -0.00000603
0.52515793 0.68396157 0.42187104 0.00001025 0.00001851 -0.00001134
0.45391086 0.61178970 0.36955377 -0.00002565 -0.00001170 -0.00000669
0.44205847 0.64901823 0.45916322 -0.00002545 -0.00000688 -0.00001152
0.54192168 0.64834076 0.49177319 -0.00000069 0.00001216 0.00002405
0.48951712 0.66398698 0.28638154 -0.00000903 0.00002924 -0.00000777
0.50793225 0.27390492 0.90137434 0.00003635 -0.00001647 0.00001592
0.50439489 0.59500867 0.48200047 0.00000169 -0.00002077 -0.00000293
0.46574870 0.66756344 0.48114201 -0.00000056 0.00001170 0.00002345
0.43463913 0.69255853 0.46731821 -0.00000058 0.00000962 0.00001952
0.49628168 0.52544755 0.05397604 -0.00000628 -0.00002370 -0.00003757
0.45949513 0.62341750 0.12853858 -0.00003199 0.00000478 -0.00000976
0.48230514 0.50295764 0.55408049 -0.00002487 0.00000887 0.00000395
0.54613829 0.61293370 0.42017147 0.00002345 -0.00001390 -0.00000162
0.50113940 0.52398348 0.17847700 -0.00000116 0.00000554 -0.00000730
0.48728377 0.66903657 0.48032728 -0.00000005 0.00001111 0.00002174
0.47992262 0.48382872 0.29984164 -0.00002712 -0.00001816 -0.00000252
0.51699930 0.51045430 0.41747072 0.00001203 0.00000881 0.00000158
0.50857329 0.48784983 0.83047366 0.00002042 -0.00002426 0.00000531
0.50138855 0.66139805 0.16775402 0.00000175 0.00003700 -0.00000810
0.51144683 0.50303584 0.82204592 0.00002981 0.00001409 0.00000423
0.47330806 0.61235529 0.51167601 -0.00000478 0.00000885 0.00002698
0.50462586 0.39066282 0.90784246 0.00000680 0.00001324 -0.00001543
0.52895808 0.50970137 0.13840951 0.00001933 0.00000624 0.00000298
0.50306362 0.50981319 0.81600243 0.00000756 0.00003248 0.00000538
0.48024544 0.48213732 0.26403806 -0.00002703 -0.00001834 -0.00000285
0.49696100 0.66507822 0.48251700 -0.00000045 0.00001123 0.00002107
0.48523775 0.48016131 0.37250820 -0.00002553 -0.00002704 -0.00000125
0.46812660 0.64745331 0.18710758 -0.00002648 0.00001898 -0.00000662
0.50069296 0.65228915 0.48958987 -0.00000034 0.00001042 0.00002097
0.51080573 0.49046147 0.08423808 0.00000947 -0.00003183 -0.00002734
0.52279186 0.48845181 0.28640521 0.00002730 -0.00001309 -0.00000264
0.51128501 0.49782535 0.89421690 0.00003223 0.00000047 0.00000623
0.55040950 0.62560815 0.44917953 0.00002203 -0.00001178 -0.00000171
0.52762407 0.68961042 0.46894866 -0.00000062 0.00001439 0.00002377
0.51477051 0.59270173 0.52139413 0.00000478 -0.00001768 0.00002377
0.47821212 0.49501273 0.40018681 -0.00002915 -0.00000154 -0.00000039
0.49593800 0.57279438 0.17208886 -0.00000189 -0.00000973 -0.00000812
0.51523423 0.52112001 0.15797950 0.00000246 0.00000962 -0.00000568
0.49517322 0.59487325 0.52134413 -0.00000756 0.00000920 0.00001750
0.46492848 0.68785083 0.43975234 -0.00001161 0.00000971 -0.00001831
0.50758851 0.47252372 0.14183411 0.00001022 -0.00003577 -0.00000598
0.53120053 0.58607709 0.28574499 0.00001154 -0.00001675 -0.00000564
0.50241983 0.51922035 0.38898098 -0.00000093 0.00000458 -0.00000006
0.50692374 0.51033789 0.72937107 0.00001353 0.00002654 0.00000533
0.51111770 0.49098250 0.82980078 0.00002887 -0.00001415 0.00000411
0.52063119 0.48952395 0.39769340 0.00002945 -0.00001074 0.00000064
0.52184522 0.64208907 0.11031988 0.00001778 0.00003226 -0.00002215
0.47549686 0.66567653 0.34988466 -0.00001788 0.00002394 -0.00000912
0.49065927 0.51301134 0.56918651 -0.00001011 0.00001727 0.00000823
0.52001739 0.51325417 0.22802715 0.00001098 0.00000952 -0.00000356
0.49849868 0.47313663 0.30152759 -0.00000331 -0.00003631 -0.00000273
0.50242615 0.60059386 0.05854730 -0.00000025 0.00001152 -0.00004300
0.50484681 0.58229882 0.40847638 -0.00000096 -0.00001813 -0.00000326
0.49289802 0.48405242 0.90877092 -0.00001273 -0.00002103 -0.00000148
0.46640339 0.59088939 0.36226627 -0.00001495 -0.00001818 -0.00000141
0.51222438 0.36029166 0.89861357 0.00002927 -0.00000379 -0.00000477
0.52244449 0.50692874 0.28353074 0.00001741 0.00000772 -0.00000296
0.54663116 0.65549189 0.41182277 0.00002651 0.00000645 -0.00000786
0.51277089 0.57466400 0.22264747 0.00000087 -0.00001292 -0.00000689
0.46122015 0.60495514 0.44077083 -0.00001882 -0.00001832 -0.00000072
0.52140689 0.50028241 0.41468447 0.00002431 0.00000413 0.00000197
0.47444016 0.58266616 0.31975898 -0.00000896 -0.00001679 -0.00000335
0.48949799 0.45999753 0.93392885 -0.00002070 -0.00000674 -0.00001452
0.51153505 0.51716530 0.35636556 0.00000303 0.00000851 -0.00000169
0.53109503 0.59169871 0.39767703 0.00001229 -0.00001836 -0.00000168
0.47321984 0.49741882 0.18293279 -0.00002563 -0.00000031 -0.00000543
0.54099959 0.66390240 0.40747067 0.00002286 0.00001366 -0.00000939
0.51375657 0.50854468 0.59008688 0.00001880 0.00001545 0.00000659
0.43640235 0.64846271 0.49170586 -0.00001033 0.00001012 0.00003056
0.51448858 0.57564336 0.19695306 0.00000158 -0.00001194 -0.00000495
0.50803864 0.66021502 0.18395853 0.00000705 0.00003150 -0.00000432
0.48592430 0.53144556 0.13692546 -0.00000239 0.00000676 -0.00000260
0.47656348 0.50545382 0.07913486 -0.00002818 -0.00002094 -0.00001784
0.48931706 0.65978128 0.19260548 -0.00000948 0.00003100 -0.00000767
0.51288629 0.48550284 0.61278045 0.00002321 -0.00002598 0.00000799
0.48091471 0.52500927 0.14101477 -0.00000502 0.00000720 0.00000055
0.50710380 0.37719819 0.92500180 0.00002003 -0.00001744 0.00001982
0.48752475 0.49861825 0.83146214 -0.00003451 0.00000519 0.00000513
0.48523504 0.50466633 0.64911687 -0.00002757 0.00001383 0.00000697
0.54450512 0.61532891 0.16923808 0.00002923 -0.00000456 -0.00000668
0.48704827 0.49187097 0.76480633 -0.00003307 -0.00001333 0.00000590
0.45982066 0.60526246 0.50435847 -0.00001752 -0.00002173 -0.00001255
0.52312189 0.48811260 0.26628959 0.00002714 -0.00001281 -0.00000313
0.50526059 0.36042625 0.91346401 0.00001002 -0.00001633 0.00001881
0.54158521 0.63832891 0.28998163 0.00002628 0.00001219 -0.00000670
0.53357118 0.58807951 0.22625211 0.00001364 -0.00001581 -0.00000692
0.51845151 0.47904283 0.22668770 0.00002326 -0.00002338 -0.00000357
0.52659923 0.49431705 0.17805690 0.00002663 -0.00000262 -0.00000375
0.48105747 0.52660692 0.05973309 -0.00002324 -0.00002229 -0.00002740
0.49643812 0.47370771 0.31532598 -0.00000558 -0.00003613 -0.00000179
0.47719184 0.58168590 0.34004191 -0.00000827 -0.00001667 -0.00000298
0.49470308 0.57050103 0.14246972 -0.00000142 -0.00000878 -0.00000604
0.52634370 0.49845549 0.19935191 0.00002467 0.00000224 -0.00000231
0.49648267 0.57474124 0.30903330 -0.00000242 -0.00001313 -0.00000529
0.51647282 0.49724156 0.65905237 0.00003086 0.00000114 0.00000793
0.51173419 0.48007861 0.45626056 0.00002040 -0.00003250 0.00000145
0.49008000 0.37530857 0.91980666 -0.00002590 -0.00001388 0.00001156
0.46499118 0.59636450 0.41111895 -0.00001675 -0.00001891 -0.00000306
0.49856779 0.64345580 0.49447486 0.00000145 0.00001091 0.00002066
0.45929417 0.60079759 0.19093229 -0.00001994 -0.00001384 -0.00000483
0.50078839 0.51122183 0.76520830 0.00000280 0.00003272 0.00000568
0.51052111 0.51411533 0.49710646 0.00000565 0.00000893 0.00000613
0.55098873 0.64379317 0.42066887 0.00002743 0.00000115 -0.00000621
0.44135916 0.62333930 0.49310535 -0.00001203 -0.00002018 -0.00001073
0.49975994 0.48075423 0.65849316 -0.00000134 -0.00003607 0.00000557
0.46548131 0.58089840 0.11056359 -0.00001481 -0.00001646 -0.00000193
0.45718905 0.62777507 0.50314724 -0.00000260 0.00001472 0.00002526
0.49715558 0.48502630 0.83871323 -0.00000570 -0.00003160 0.00000351
0.47808209 0.50964135 0.25573575 -0.00001593 0.00000708 -0.00000442
0.45496842 0.62619919 0.29015714 -0.00002893 -0.00000133 -0.00000525
0.47354630 0.63009477 0.09857479 -0.00002994 0.00001741 -0.00001952
0.52761495 0.52635145 0.12474661 0.00001248 0.00000758 0.00000314
0.53826886 0.59166592 0.12428105 0.00001945 -0.00001390 -0.00000181
0.47245419 0.58455765 0.06489271 -0.00003080 0.00000970 -0.00002275
0.49642083 0.47165167 0.22092335 -0.00000735 -0.00003415 -0.00000194
0.49975175 0.47323668 0.31370914 -0.00000195 -0.00003705 -0.00000090
0.46713179 0.64764333 0.24248390 -0.00002410 0.00001746 -0.00000778
0.51611447 0.51819187 0.19023208 0.00000523 0.00000986 -0.00000410
0.47708821 0.48368686 0.19192348 -0.00002880 -0.00001391 -0.00000284
0.50001097 0.51909941 0.40884194 -0.00000188 0.00000459 0.00000040
0.49144766 0.52258402 0.17687748 -0.00000304 0.00000615 -0.00000715
0.52129138 0.57773209 0.16919445 0.00000365 -0.00001362 -0.00000666
0.48332542 0.50155276 0.62140739 -0.00003125 0.00000544 0.00000604
0.53513253 0.63902825 0.49692371 0.00000108 0.00001117 0.00002366
0.52900809 0.49854189 0.09669155 0.00003168 -0.00001939 -0.00001117
0.50367469 0.57353091 0.20655391 -0.00000191 -0.00001043 -0.00000651
0.49055195 0.39633620 0.93486089 -0.00002768 -0.00001036 0.00001793
0.50733113 0.47846085 0.48419198 0.00001640 -0.00003508 0.00000309
0.51292723 0.50997329 0.58036780 0.00001554 0.00001705 0.00000640
0.49173775 0.48309213 0.66294712 -0.00001727 -0.00003038 0.00000626
0.54424053 0.62225902 0.22643761 0.00002799 0.00000276 -0.00000452
0.56708777 0.68053794 0.47396639 -0.00003518 -0.00000022 0.00002763
0.54080951 0.66590297 0.41225746 0.00002297 0.00001342 -0.00000761
0.49235335 0.67431259 0.36593458 -0.00000647 0.00002620 -0.00001028
0.51699567 0.48248199 0.37698945 0.00002501 -0.00002479 -0.00000061
0.45001611 0.61276543 0.51144862 0.00000836 0.00001702 0.00001245
0.50672102 0.65940297 0.48565513 -0.00000025 0.00001041 0.00002129
0.50660735 0.60097307 0.05937390 0.00000830 0.00001324 -0.00004109
