0.409441 0.311699 0.101170
-0.124271 0.138366 -0.076008
-0.560194 -0.136358 -0.152896
-0.129002 -0.041152 -0.161434
0.064563 -0.116633 -0.185523
-0.116354 0.262256 -0.261571
0.407585 0.078249 0.282845
0.041676 0.415574 -0.005317
-0.063840 0.265093 0.178051
0.434927 0.187771 0.400696
0.417243 0.214923 0.401550
-0.076369 0.203441 -0.403724
0.376820 0.153008 -0.127225
0.225100 -0.089911 -0.133039
-0.034593 0.115088 -0.462345
-0.059104 0.329954 0.128873
0.315107 0.067942 -0.172095
-0.556062 -0.155501 -0.238106
-0.049600 0.321464 -0.222439
0.128769 0.163842 0.353666
-0.024004 0.052110 0.240224
0.307283 -0.144804 0.177645
0.078462 -0.190961 0.027295
0.005335 -0.130162 -0.037017
-0.177214 -0.112903 -0.243306
0.023549 0.332012 -0.296529
0.112685 0.451466 0.178807
0.112081 0.321487 0.316355
-0.047933 -0.050777 0.179073
-0.254778 -0.155346 -0.370297
0.198044 0.200050 0.369706
-0.067827 0.311908 -0.257006
-0.057982 0.025903 0.161701
-0.205779 -0.007589 -0.338034
0.075760 0.421793 0.166954
0.023679 0.025260 0.298174
0.085252 -0.019753 -0.524228
-0.006200 -0.257482 -0.417625
0.326863 0.393957 -0.161669
-0.001860 0.272335 -0.397206
-0.167632 -0.277402 -0.046070
-0.060678 -0.135812 -0.516155
0.003212 -0.116563 0.199427
0.316536 0.374174 -0.354184
0.055070 0.526405 -0.088788
0.069471 0.194513 0.329188
0.147504 0.462775 0.131735
0.169824 0.098688 0.373102
0.414558 0.192023 0.417495
-0.007297 -0.145022 0.053936
0.086318 0.501791 -0.149207
-0.455947 -0.128233 -0.193825
0.088587 -0.146549 -0.370067
-0.134975 -0.236778 -0.386427
-0.238610 -0.142671 -0.383475
0.192957 -0.070439 -0.183095
-0.004028 0.118512 -0.473603
-0.059994 -0.192749 -0.272576
-0.138380 -0.248390 -0.236578
0.108477 0.460859 0.160256
0.154480 0.431827 0.059072
0.470096 0.047389 0.085338
-0.141562 -0.163505 -0.204756
0.058272 -0.117111 -0.162501
0.130355 0.228760 -0.417149
0.193471 -0.018662 -0.283444
0.233432 0.213110 -0.331686
-0.129121 -0.107606 -0.217324
-0.127471 0.116337 -0.080667
0.421471 0.294065 0.063074
0.255815 0.328441 -0.258922
-0.204148 -0.188474 -0.235026
0.113791 -0.089503 0.304898
0.463060 0.164544 0.280009
0.107415 -0.143364 -0.095028
0.144022 -0.010760 -0.377002
-0.442528 -0.179915 -0.309042
-0.257553 -0.108736 -0.352044
0.087187 0.472892 -0.264210
0.113871 -0.202057 0.140571
-0.341387 -0.361815 0.058278
-0.532768 -0.137784 -0.167317
0.037247 0.340579 0.225224
-0.097378 -0.161148 -0.521868
0.315503 0.299469 -0.271485
-0.128971 0.213671 0.111668
0.322183 0.402169 -0.185355
-0.032123 0.327511 -0.236992
-0.145387 0.030436 -0.127642
-0.574018 -0.107941 -0.162622
-0.105381 0.278993 -0.252450
0.470275 0.149477 0.208929
-0.338891 -0.176170 -0.252035
0.091433 -0.093103 -0.289526
0.105000 0.330763 0.309100
-0.197719 -0.198903 -0.323980
0.176438 -0.207983 0.054433
-0.030273 -0.179112 -0.276315
-0.249515 -0.269190 -0.001137
0.003424 0.387709 0.019614
0.305146 0.365129 0.207930
-0.109606 0.271829 -0.289822
-0.312394 -0.079845 -0.265341
-0.005657 0.214754 -0.435800
0.031154 0.439766 -0.027814
0.439608 0.033691 -0.072587
0.401701 -0.041386 -0.059329
0.078535 0.436343 -0.128477
0.158128 -0.132950 -0.114512
-0.091113 0.038002 0.099468
-0.141232 -0.066265 -0.211655
-0.290638 -0.293952 0.046118
-0.306072 -0.318929 -0.015472
0.381154 0.059711 0.304180
-0.062250 -0.082951 0.064515
-0.163263 -0.151792 -0.221562
-0.478389 -0.110175 -0.245883
-0.136741 0.032755 -0.458998
0.275079 0.417044 -0.089660
-0.078485 0.339420 0.081150
0.132108 -0.124945 0.278807
0.100754 -0.089360 -0.238130
0.269283 -0.045293 -0.140063
-0.323567 -0.091915 -0.243760
-0.037147 -0.011466 -0.522498
0.217499 -0.199095 0.157588
-0.307196 -0.342666 0.055687
0.217453 -0.071363 -0.160769
-0.263619 -0.276133 -0.006799
-0.020048 -0.113211 -0.026595
-0.518306 -0.187228 -0.242342
0.295584 0.388785 -0.086561
0.306158 -0.018711 -0.157077
-0.137837 0.056078 -0.431802
-0.156304 0.075369 -0.311673
0.111783 0.344434 -0.236485
0.150585 0.150117 0.360949
0.002972 -0.140981 -0.540588
-0.241240 -0.330028 -0.148778
0.385201 0.173432 -0.123188
0.185015 0.471819 -0.171931
-0.260617 -0.345914 -0.050525
0.019100 0.343683 -0.169632
-0.165858 -0.104618 -0.235689
-0.044568 -0.191910 -0.520146
-0.175013 -0.193303 -0.138226
-0.119601 -0.060779 -0.499310
-0.027433 -0.106200 0.156963
0.250508 0.160111 -0.339888
0.074626 0.432900 -0.105427
-0.025648 -0.244401 -0.461878
0.015688 -0.023502 -0.537823
-0.118033 0.081711 -0.000278
-0.014677 -0.044768 0.233785
-0.066821 0.210211 -0.409049
-0.147875 -0.014980 -0.220058
-0.186022 -0.175949 -0.468291
0.027644 0.208253 -0.444991
0.210876 0.041177 -0.366302
0.322984 0.047727 0.340984
0.100782 -0.165498 -0.420981
0.251159 -0.147929 0.243780
0.284076 -0.161718 0.174981
0.041739 0.504101 0.040414
-0.039567 0.012858 0.203569
-0.056074 -0.067499 -0.074980
0.291081 0.361857 0.270631
0.457378 0.255489 -0.157879
0.389896 0.325726 -0.116993
-0.554345 -0.167816 -0.175981
-0.198639 -0.240860 -0.042737
0.298878 0.369740 0.091241
-0.207608 -0.253391 -0.013264
-0.460308 -0.190983 -0.255261
0.025175 -0.054148 0.271737
0.159360 -0.051811 -0.278553
0.334520 0.232940 -0.199012
-0.098700 0.271181 -0.309727
0.010948 0.313345 -0.046082
-0.164102 0.107349 -0.233546
0.221373 0.416689 -0.061894
0.131438 -0.200999 0.155006
0.065147 -0.110608 0.267392
-0.221002 -0.205918 -0.146176
-0.415073 -0.161240 -0.216892
0.328447 0.370913 0.145184
-0.194931 -0.304681 -0.144791
0.458647 0.135401 0.359917
0.481274 0.096948 0.096361
-0.058658 0.172990 -0.430137
0.064930 0.034144 0.329642
0.482173 0.224091 0.012394
0.419773 0.299109 0.272379
-0.008396 0.304481 0.210201
0.172254 -0.055416 -0.229937
0.076129 0.186715 -0.453016
-0.133575 0.137950 -0.362454
0.099183 0.267446 -0.397001
0.108668 -0.150427 -0.083670
0.288204 0.355394 -0.339157
0.231714 0.047854 -0.322884
0.057804 0.327440 0.261857
0.126011 0.451654 -0.302568
0.197576 -0.205278 0.059800
0.080583 -0.004969 -0.489742
0.312337 0.149298 -0.156681
-0.048140 0.344447 0.131679
0.355552 0.387222 -0.282934
-0.336248 -0.328270 0.069803
0.210067 0.021443 -0.323991
-0.067962 0.299515 0.145342
0.240841 -0.010731 -0.216520
0.112901 0.030067 0.354192
0.272095 -0.143245 0.006041
0.140775 0.454995 -0.314564
0.278460 -0.134253 0.240439
0.346629 0.302760 -0.266469
0.150749 -0.067192 -0.425362
-0.117891 -0.231369 -0.262621
0.280512 -0.160409 0.122039
0.434915 0.314125 0.140515
0.356623 0.335561 0.020089
0.448259 0.277659 0.222232
0.184574 0.409458 0.169767
0.043467 0.355788 0.219220
-0.082584 -0.030197 -0.519791
0.326569 -0.135028 0.124913
-0.399146 -0.178523 -0.322761
-0.192229 -0.147439 -0.470437
0.112535 -0.209898 0.080993
0.246629 0.363574 -0.268933
0.210355 0.214060 -0.367413
-0.598525 -0.195847 -0.217183
0.134479 0.492740 -0.124612
-0.273687 -0.105901 -0.257880
0.187513 0.023081 0.370534
0.478386 0.147858 -0.035869
-0.080178 -0.033678 0.055036
-0.003446 -0.259694 -0.357345
0.225229 -0.015600 -0.226594
0.372977 0.143608 0.448467
0.147912 0.389908 -0.241442
0.190472 0.407082 -0.271490
0.021471 -0.096439 0.243521
0.078904 0.516083 -0.112407
0.220425 0.416676 0.242705
0.401739 0.354808 -0.261591
-0.229764 -0.346192 -0.101821
-0.270213 -0.290166 -0.135993
0.295082 0.419867 -0.286784
0.172447 -0.059243 0.336096
-0.281410 -0.326146 0.047577
0.129656 0.426914 0.220591
-0.103719 -0.128770 -0.507179
0.178472 0.479041 -0.233569
0.317245 0.206087 -0.231882
0.503133 0.139604 0.049778
-0.457070 -0.146266 -0.312633
-0.087558 -0.018597 0.027102
-0.119231 -0.119256 -0.505883
0.332089 0.224825 -0.168847
-0.583185 -0.123098 -0.167862
0.035043 -0.045373 -0.554043
-0.003758 0.392770 0.129536
0.202171 -0.187714 0.010400
-0.016245 0.323656 -0.276525
0.021572 0.448854 0.013486
0.138378 -0.061294 -0.275978
0.442442 -0.012637 0.048839
0.186264 -0.193517 0.012631
0.469111 0.178059 0.215129
-0.148078 -0.257858 -0.119055
0.118381 -0.025237 -0.432267
0.196232 0.413784 0.269624
-0.111739 -0.183928 -0.226087
0.476392 0.275613 0.175286
-0.143169 -0.233601 -0.364811
0.051115 -0.122509 -0.110395
0.108503 -0.037393 -0.518719
0.158206 -0.185673 -0.025734
0.004074 0.334650 -0.222701
0.119032 0.199506 0.346784
0.088063 -0.177302 -0.031677
0.500906 0.205072 0.043607
0.255710 -0.176299 0.185641
-0.133335 0.057229 -0.078564
0.019744 0.273362 0.257494
0.348501 0.386188 -0.232844
0.128332 -0.212768 0.099059
-0.049553 0.360522 0.056482
-0.145930 0.099945 -0.129110
0.332215 0.135024 0.453995
0.482118 0.309814 -0.143505
0.260423 0.125748 -0.313086
0.248466 0.236512 0.377848
-0.017669 0.267765 -0.394003
0.319115 0.353292 0.046125
0.202150 -0.128610 -0.096780
-0.110773 -0.250179 -0.345494
-0.149858 0.169612 -0.168153
0.391771 0.322415 -0.079188
0.246070 0.381467 0.113647
-0.045996 -0.091245 -0.524874
0.063112 0.221588 0.318295
-0.096458 0.203056 -0.026167
0.108529 0.380085 0.258246
0.109818 -0.145833 -0.398060
0.288780 0.407504 -0.155256
0.138117 -0.213187 0.065678
0.286461 0.163338 -0.259607
0.043717 0.466095 -0.084347
-0.495100 -0.129024 -0.180800
0.159171 0.135479 -0.442915
0.369949 -0.089277 0.035262
-0.030619 -0.092460 -0.064917
0.144863 0.492884 -0.180694
-0.291840 -0.318339 -0.074344
-0.152466 0.133634 -0.159592
-0.223060 -0.141829 -0.413135
-0.387497 -0.133128 -0.311970
0.434073 0.111841 0.393445
-0.179098 -0.274767 -0.094137
-0.153616 0.147834 -0.273145
-0.005206 0.163157 0.278473
0.080963 0.492976 -0.201809
0.340179 0.064440 0.393521
-0.033261 -0.143863 -0.236752
-0.314610 -0.390183 -0.012779
-0.082870 0.113624 0.100295
-0.153922 -0.214169 -0.444144
-0.203780 -0.008470 -0.321514
0.083382 0.147039 0.342498
-0.174924 -0.182723 -0.476123
-0.099093 -0.062113 -0.140918
-0.094238 0.212499 -0.061470
-0.585591 -0.130540 -0.143008
-0.140142 -0.116642 -0.224114
-0.359993 -0.193767 -0.317089
0.286932 -0.098937 0.275300
0.291456 0.029715 0.346102
0.437358 0.102132 0.381831
0.057948 0.442495 -0.088317
0.421649 0.083927 0.386987
0.384345 0.329678 0.269800
0.075312 0.465288 0.110039
0.054667 0.095919 -0.473967
0.340698 0.002460 0.312268
-0.333654 -0.189377 -0.329518
0.169039 -0.205911 0.142365
0.118749 -0.077288 -0.251687
0.014899 0.093095 -0.474682
0.120873 -0.069651 -0.380369
0.394413 0.021393 0.267655
0.403839 0.085284 0.410614
0.477590 0.187698 0.175380
0.481421 0.188693 0.153076
0.208213 0.328714 -0.224010
-0.172428 -0.033337 -0.248313
0.230592 0.434468 -0.166515
0.104216 -0.063988 0.318532
-0.284294 -0.298599 -0.091822
0.236945 -0.123716 -0.078734
0.291216 0.388152 0.122072
0.373155 0.344922 -0.337006
-0.347726 -0.148629 -0.342560
-0.146594 0.070156 -0.379089
0.236218 0.166651 -0.360147
-0.183359 -0.288011 -0.159604
0.162552 0.143131 0.367286
-0.000850 0.187280 0.274614
-0.016007 -0.138883 0.093706
0.256115 0.064815 -0.300209
0.481315 0.165281 0.157648
-0.248744 -0.292582 0.063847
-0.231278 -0.213996 -0.181367
-0.590780 -0.196347 -0.229178
0.022010 -0.132996 -0.061329
-0.036461 0.307706 0.173158
0.341776 -0.058496 0.268365
0.284938 0.135192 -0.255924
0.034759 -0.096533 0.255527
-0.077807 0.303505 -0.268632
0.070316 -0.196226 0.083410
-0.084766 -0.120193 -0.217325
0.471507 0.233155 -0.031141
0.393726 0.359656 -0.164086
-0.133436 -0.031897 -0.490592
0.261470 0.072779 -0.246063
-0.256728 -0.085902 -0.296885
0.008973 0.315895 0.222164
0.469095 0.178353 0.330912
-0.600534 -0.182637 -0.230040
0.126456 0.285882 0.329296
0.057208 -0.128424 0.241280
-0.061444 0.269936 -0.360961
-0.144868 0.181853 -0.247378
0.127966 0.448376 0.029595
-0.129795 0.131616 -0.372872
-0.110145 0.271329 -0.238448
0.062450 0.521946 -0.023793
0.199551 -0.019659 0.354910
0.266403 -0.166790 0.197536
-0.060151 0.048217 -0.479469
-0.146338 -0.189026 -0.498347
-0.259413 -0.185935 -0.349277
0.286667 0.403591 -0.137957
-0.063557 0.010175 0.166813
-0.189674 -0.125181 -0.263581
0.455926 0.089470 0.222434
-0.006413 -0.101207 -0.110577
-0.149194 -0.197392 -0.485000
0.108441 -0.180059 0.195114
-0.124728 0.093747 -0.054732
0.218049 0.419718 -0.281908
-0.166746 -0.273846 -0.184314
0.170590 -0.029646 0.350407
-0.075560 -0.188351 -0.516539
0.144476 -0.214127 0.098363
-0.113369 0.144690 -0.394989
0.322866 0.202616 0.445815
-0.185569 -0.074648 -0.444312
0.087435 0.307386 -0.349186
0.070515 0.369291 0.242550
0.472611 0.121297 -0.043413
0.073118 0.517651 -0.047605
0.279548 0.039253 -0.185728
-0.101567 -0.253030 -0.382355
-0.067801 0.058931 0.141858
0.015107 -0.123293 0.206277
0.106824 0.508752 -0.141842
0.048113 -0.054571 0.297061
0.203364 -0.185885 0.203102
0.046655 -0.064766 -0.559979
0.326554 0.405345 -0.338746
0.132332 -0.155920 -0.081668
-0.049658 -0.111331 -0.206282
0.190648 -0.105989 0.298638
-0.026929 -0.269016 -0.343976
0.094217 0.113375 -0.464777
0.054674 0.259532 -0.407950
0.452055 0.312156 -0.079062
-0.045895 0.093260 0.185142
-0.064425 0.336230 0.031298
0.045701 0.388038 0.193507
-0.067749 0.243044 -0.052461
0.217894 0.101924 0.377426
0.202757 0.464226 -0.202796
-0.269859 -0.364055 -0.040058
0.008266 -0.126534 -0.053204
-0.185957 -0.206680 -0.309174
-0.098819 0.129970 0.031519
0.419177 -0.045904 0.109805
0.144017 0.338829 0.313898
0.138668 0.442666 0.035098
-0.059729 0.302434 -0.173929
-0.039772 0.029248 0.197535
0.147466 -0.054390 -0.440164
-0.443419 -0.091878 -0.201218
0.082567 -0.130655 0.255366
0.102215 0.078339 0.364349
0.139837 0.467626 0.151003
-0.049195 0.109618 0.213247
0.052450 0.000215 -0.504248
-0.122797 0.274882 0.031304
0.361829 0.244446 -0.134425
-0.013120 0.317091 -0.125067
0.239208 0.285563 -0.256853
0.059554 0.482586 -0.100909
0.160849 0.296896 -0.317712
0.049434 -0.111478 -0.549321
-0.092624 0.242967 0.157569
0.146318 0.269574 -0.367457
-0.149454 -0.004454 -0.194348
-0.234021 -0.099184 -0.368271
0.212659 0.440474 -0.153026
0.071282 0.050274 -0.455783
0.372107 -0.098774 0.100689
0.289970 0.045478 0.352472
-0.228795 -0.077296 -0.332832
-0.017646 -0.152381 -0.536004
0.456577 0.205063 -0.077960
0.337504 0.294735 -0.253536
-0.128434 0.180885 0.097602
0.430220 -0.029302 0.056759
0.043145 -0.128705 0.230004
-0.035906 -0.087902 -0.111659
0.196103 0.030509 -0.368510
0.040972 -0.124407 -0.099080
-0.182842 0.019033 -0.419035
0.355443 0.069184 0.331330
0.109935 -0.165940 -0.062439
-0.108429 -0.104468 -0.502483
0.023274 -0.242338 -0.414156
0.466897 0.269918 0.193608
0.142028 0.028047 -0.417303
0.467005 0.032276 0.066178
0.070488 0.133678 0.334481
0.462998 0.026125 0.011852
-0.464750 -0.135168 -0.275800
0.066145 -0.121507 -0.273431
-0.160338 0.050221 -0.270238
-0.055388 0.044116 0.162305
-0.125342 -0.184950 -0.200597
0.198590 0.470090 -0.283912
-0.116108 0.253448 -0.221891
-0.136950 -0.232178 -0.412566
0.035306 0.262413 0.283911
0.148159 0.012232 0.361295
0.407612 0.161281 0.428555
0.307401 0.414888 -0.310985
-0.111023 -0.145419 -0.514223
0.337012 0.303696 -0.281050
0.291039 -0.030216 -0.143250
0.328407 0.367156 -0.111100
-0.205195 -0.012929 -0.360337
0.379218 0.323333 0.011935
0.278115 -0.010582 -0.162072
0.023728 0.326804 -0.041040
-0.559422 -0.182593 -0.194385
0.014341 0.463816 -0.009131
0.431881 -0.033945 -0.002497
0.256535 -0.076978 -0.111414
0.375897 0.062833 0.364483
0.379164 0.374923 -0.283220
-0.142242 -0.021243 -0.164952
0.197749 0.401067 0.169653
0.293122 0.117114 -0.212685
-0.079939 0.117420 0.156897
0.428316 0.315823 -0.101943
0.489530 0.111529 0.057655
0.178628 0.415882 0.097364
-0.326951 -0.155983 -0.348352
-0.072935 0.005198 0.127418
0.280102 0.384912 -0.062617
0.281687 0.321127 -0.281202
0.052004 -0.029456 0.309206
-0.067210 0.306771 -0.281434
0.072358 -0.183761 0.006751
0.385398 -0.084888 0.054916
0.375248 0.321361 -0.309658
0.398249 0.275989 0.354843
-0.165937 -0.270549 -0.107934
-0.096221 0.277763 -0.181576
0.172290 -0.212101 0.117814
-0.155317 0.126393 -0.278517
-0.428414 -0.196960 -0.273244
0.401921 0.306417 0.057760
-0.084518 0.162676 -0.417832
0.392558 0.326433 0.258557
-0.169436 -0.218823 -0.369571
-0.076713 -0.183947 -0.254802
0.146082 0.485142 -0.116384
0.363188 0.378174 -0.224463
0.296458 0.387906 0.143352
0.473357 0.193938 0.305677
-0.083540 0.150528 0.191012
0.050540 0.118212 -0.477014
0.046242 -0.187268 -0.520764
0.500050 0.216629 0.153791
-0.206242 -0.083509 -0.411624
0.273631 0.384672 -0.041472
-0.259189 -0.303002 0.064906
0.089861 -0.085009 -0.252428
0.104278 0.374483 -0.224879
0.012986 0.418431 0.070324
0.436991 0.284365 0.070175
-0.036046 -0.026591 0.206663
0.334339 0.284969 0.388275
0.002031 0.404066 0.053904
0.260413 0.398939 0.164247
0.122012 -0.105709 0.294969
0.393337 0.314730 0.015379
-0.029975 -0.225322 -0.493105
0.133061 0.414523 -0.274042
-0.012125 0.086612 -0.467585
0.301725 0.261824 0.414544
0.153113 0.491422 -0.220770
0.321711 0.364756 -0.086338
0.488792 0.114953 0.129481
0.215843 0.405714 0.034803
0.033217 0.500263 0.029803
0.088644 0.077673 -0.461956
0.051731 0.340026 -0.046477
-0.037541 0.248939 0.221608
-0.069071 0.311690 -0.220680
0.024379 0.090882 0.306187
0.329178 0.358559 0.081037
0.348344 0.089319 0.438197
0.400293 0.353626 -0.296145
0.218978 0.418661 0.220535
0.418367 0.314296 0.222010
-0.206821 -0.033347 -0.304668
0.212207 0.002553 -0.302208
0.127747 0.004424 0.354220
0.183272 -0.059916 -0.204992
0.169986 -0.156503 0.246293
-0.071453 0.343620 0.096600
-0.294870 -0.130347 -0.343341
-0.139098 -0.242297 -0.201243
0.088533 0.345491 -0.232501
0.267223 0.341202 -0.290294
-0.235797 -0.225209 -0.187239
-0.069947 0.240305 -0.073878
0.079713 -0.111469 -0.283158
0.036944 -0.137242 -0.259871
-0.020265 -0.107344 -0.046293
0.174324 0.271895 -0.340967
-0.067811 -0.140808 -0.228939
-0.204827 -0.021244 -0.373762
0.176207 0.390735 -0.247720
0.075967 -0.192781 0.039689
0.095648 -0.078720 -0.273269
-0.271274 -0.300989 0.073851
0.100799 0.475890 0.129037
0.214074 0.283233 -0.255138
0.259496 0.179613 0.410118
-0.102520 0.182473 -0.392623
0.252661 -0.183480 0.143201
-0.005481 -0.138327 0.014340
0.051417 -0.168680 0.175026
0.440053 0.150696 0.400507
-0.013269 0.394373 0.106463
0.350924 0.263406 -0.170339
-0.103748 0.095432 0.036383
0.207726 -0.041672 0.343312
0.382716 0.368961 -0.334746
0.030084 -0.220105 -0.391416
0.191229 0.190724 -0.404771
-0.371720 -0.183816 -0.250903
0.270527 0.100136 -0.250484
-0.082107 -0.029004 0.037482
-0.007536 0.283645 -0.382012
-0.073399 0.247992 -0.098603
0.486771 0.292355 0.096412
0.076485 -0.036504 -0.544876
0.454592 0.298990 -0.191570
0.146150 0.167312 0.358035
-0.153529 -0.190460 -0.157100
0.323138 0.314441 -0.319433
-0.131494 0.238537 0.093461
0.288084 -0.022446 0.327725
0.087607 -0.138624 -0.331406
0.265739 0.176961 0.425430
0.454083 0.280886 0.200210
0.273737 0.123087 -0.265751
-0.327439 -0.325512 0.044648
0.101013 0.507663 -0.096853
0.180372 0.338824 0.316573
0.256564 0.100623 -0.326859
0.166147 0.174203 -0.427431
-0.123916 0.169163 0.103208
-0.040960 0.247584 -0.397070
-0.052588 0.013731 0.184394
0.249909 0.269899 0.359255
0.323600 0.363172 0.185086
-0.027514 0.012497 0.220040
0.202146 -0.203540 0.111304
0.310285 0.382048 0.118926
0.129845 0.501717 -0.191886
0.457107 0.052497 0.138057
0.192572 0.422951 -0.030563
0.416561 0.320307 0.188160
-0.203120 -0.150031 -0.450639
0.298983 -0.082075 -0.039054
-0.176566 -0.003204 -0.437557
-0.501083 -0.146359 -0.277775
-0.006674 -0.127846 0.167346
0.147012 -0.031074 -0.337824
0.152417 0.457597 0.195989
0.148757 0.050768 0.374062
0.338326 -0.104416 0.217706
-0.153122 0.048352 -0.151182
0.074496 0.389331 -0.032770
0.194706 0.312862 -0.230872
-0.132960 -0.239663 -0.330138
0.012162 -0.235083 -0.474551
0.184825 -0.008515 -0.326370
-0.374262 -0.123026 -0.302346
-0.094465 0.214079 -0.044230
-0.492368 -0.145318 -0.186360
-0.090849 0.032920 0.064605
-0.275918 -0.280802 -0.023724
-0.062422 0.112503 -0.446312
0.377481 -0.011873 -0.139954
0.439390 0.259535 0.313653
0.148076 0.159970 -0.445935
-0.143018 -0.254096 -0.164805
0.169535 -0.103764 0.301193
0.082202 0.508688 0.017020
-0.058561 -0.085044 -0.522465
-0.275044 -0.272383 -0.066449
-0.244432 -0.236173 -0.088469
0.064432 0.508155 -0.104446
0.232904 0.398791 0.017650
0.074088 0.358970 0.256223
0.201412 0.005923 0.364049
0.219819 0.082249 -0.385611
-0.063968 0.150924 0.222429
0.349531 0.338459 0.031479
0.033008 0.458098 0.055703
0.443006 0.004039 -0.017979
0.426021 0.092746 0.327673
0.037718 0.251105 0.291724
-0.077855 0.288964 -0.169318
-0.206820 -0.329223 -0.138100
-0.301321 -0.109669 -0.246564
-0.126906 0.165503 -0.362436
0.093961 0.099538 -0.464484
0.038601 0.427225 0.119421
-0.039383 -0.264251 -0.395557
0.311615 -0.139655 0.096709
-0.123193 -0.161686 -0.221063
-0.052781 -0.202204 -0.281478
0.171747 -0.114438 -0.130748
-0.473605 -0.189966 -0.256980
-0.026698 -0.211583 -0.506880
0.362904 0.384883 -0.302957
0.122658 -0.119126 -0.387803
0.148324 0.396736 0.275271
0.468074 0.278049 -0.176194
0.397319 0.102811 0.426240
0.517635 0.266566 0.107654
-0.423860 -0.160679 -0.322644
-0.507042 -0.142575 -0.258011
-0.048979 0.319685 -0.248257
0.295699 0.093166 0.393324
0.464148 0.183392 -0.067225
0.237875 0.243578 -0.273780
0.442369 0.045435 0.167645
0.088019 -0.052291 -0.545538
-0.042341 0.207985 -0.433569
-0.033450 0.102393 0.231952
0.090718 0.440050 0.154218
0.364964 0.083931 0.431975
0.048418 -0.140211 -0.272620
-0.256059 -0.244557 -0.093850
-0.436843 -0.144914 -0.317452
0.187558 -0.037911 -0.269523
0.031821 -0.190539 -0.520732
-0.264458 -0.102766 -0.341380
0.111865 -0.134690 -0.111862
0.406624 0.302800 0.089843
-0.193646 -0.182122 -0.442741
-0.172692 -0.287820 -0.191556
0.240684 0.426804 -0.290994
0.248908 0.114763 -0.340551
0.473169 0.107716 0.177107
0.070501 -0.013321 0.330729
-0.028655 -0.016216 0.222910
-0.117241 0.118711 -0.017857
0.028158 -0.189775 -0.370784
-0.225374 -0.119915 -0.401886
0.344392 0.042313 0.328064
0.356500 0.011583 0.303679
0.141819 -0.126374 -0.125437
0.129704 -0.157683 0.239397
0.259626 0.396580 0.236200
-0.247595 -0.348072 -0.072159
0.048929 -0.122098 -0.257458
-0.000282 -0.228438 -0.336543
0.160489 0.308561 0.334241
0.032567 0.330122 -0.305941
-0.105621 0.025861 0.018718
-0.119943 0.055330 -0.455939
0.363930 0.178319 0.446375
0.279220 0.001891 0.340292
0.229067 0.119813 -0.380331
-0.151042 0.145208 -0.303109
-0.042312 -0.092939 0.124118
-0.179842 -0.250873 -0.264113
-0.238164 -0.314842 -0.170256
-0.087905 -0.077899 -0.180763
0.100947 0.235412 -0.419948
0.102392 0.388857 0.238143
0.082230 0.485185 0.099496
0.034129 0.008427 -0.478724
0.408324 0.303230 0.044767
-0.155115 -0.255204 -0.077999
-0.590980 -0.190587 -0.243568
-0.132724 0.218555 -0.227218
0.018019 0.126340 0.298005
-0.153601 0.004976 -0.227804
0.014036 -0.141860 -0.249857
0.130773 0.114682 0.369995
0.107101 0.304019 -0.347768
-0.183347 -0.174082 -0.183512
0.467845 0.059737 0.001025
-0.130422 -0.239022 -0.249995
0.061688 -0.158249 -0.536344
-0.068480 0.032493 -0.496946
0.366825 0.223396 0.431529
-0.101490 -0.016506 -0.506639
0.187373 0.234744 -0.373222
0.258985 0.284194 0.359804
0.014258 0.475777 -0.030343
-0.282099 -0.288597 -0.010936
0.164522 0.474662 -0.111698
0.106059 0.402402 -0.224275
-0.010989 -0.167790 -0.273314
0.097148 -0.106469 -0.308727
0.462547 0.136022 -0.075849
-0.182635 -0.008445 -0.273218
0.160092 0.067957 0.375142
0.451588 0.319212 -0.102281
0.191935 -0.180982 -0.023923
-0.326793 -0.129782 -0.234868
-0.120915 0.250803 -0.297350
-0.215723 -0.213293 -0.108330
0.116680 0.110460 0.369352
0.269582 -0.151583 0.053770
0.008222 0.336500 -0.125970
0.118153 -0.149819 0.246650
0.237978 0.205805 0.365802
0.323737 0.402125 -0.262517
-0.162341 -0.006318 -0.452851
0.412264 0.299056 -0.199301
-0.166149 0.049126 -0.396611
0.389736 0.044163 0.287639
0.223548 0.400647 0.267632
0.122127 -0.141151 -0.404379
0.234729 -0.188712 0.083604
-0.437616 -0.051943 -0.226749
0.207616 0.344889 -0.218206
-0.091808 -0.142986 -0.226938
-0.222314 -0.291823 -0.054215
0.382580 0.293883 0.345633
-0.200242 -0.195770 -0.140343
-0.160242 -0.268862 -0.126207
0.359499 0.340282 0.282091
0.112369 0.486330 0.099682
-0.107216 0.042671 0.020200
0.364505 -0.109915 0.105568
0.249938 0.251856 0.377749
0.119552 0.181169 0.350168
0.132502 0.291936 -0.356614
0.066169 -0.157721 0.209032
-0.082441 -0.213357 -0.499012
0.370049 0.367760 -0.345727
-0.071367 -0.009794 0.144608
-0.041667 -0.098655 0.105150
-0.040515 -0.269025 -0.359962
0.080989 0.208376 -0.443019
0.003328 0.162463 -0.468631
0.264477 0.089806 -0.279905
0.250637 -0.041691 0.332132
-0.179262 -0.241609 -0.049029
0.320220 0.402631 -0.228816
-0.562288 -0.176739 -0.181143
0.301486 -0.105564 0.256932
0.463868 0.061245 -0.021217
0.384462 0.342792 0.127494
0.148204 -0.128029 -0.420505
0.412099 0.304119 0.013957
-0.152553 -0.260778 -0.234452
-0.028613 0.141403 0.260646
-0.104138 -0.114078 -0.214892
-0.008303 0.294603 -0.356742
0.455182 0.108699 -0.076883
0.259187 0.084698 -0.299498
0.467960 0.096801 -0.047456
0.044687 0.505840 -0.091270
0.308588 0.142393 -0.200956
0.224381 0.344054 -0.230231
0.047329 0.364466 -0.188766
0.009435 -0.034935 -0.540986
0.078741 0.477896 -0.236098
0.172088 0.439764 0.165873
0.093738 -0.066209 -0.544510
0.462297 0.179420 0.349375
-0.182809 -0.210538 -0.367111
-0.082740 0.325099 0.034971
0.196814 0.462627 -0.134471
0.372788 0.247245 -0.149019
0.437271 0.288774 0.048104
0.321429 0.081194 0.423115
0.362760 0.335272 0.228913
0.362034 0.351656 0.138034
-0.128212 0.227519 -0.259408
-0.167854 -0.098733 -0.460140
-0.083201 0.200750 0.188771
-0.142387 0.042523 -0.121527
-0.102363 0.293387 0.103307
0.460168 0.013044 0.094749
0.081877 0.421029 -0.191055
0.246185 0.209731 -0.310923
-0.490683 -0.162561 -0.200720
0.211324 0.054330 -0.378136
-0.047297 -0.079599 -0.103195
0.076356 -0.087901 -0.258336
0.362801 0.350530 0.089797
0.018695 0.506065 -0.048570
0.289862 -0.084147 0.287923
-0.059708 -0.076414 0.027209
0.387094 0.264471 0.382944
0.362956 0.330187 0.071081
-0.155659 0.067087 -0.325119
-0.022434 -0.031689 0.225858
0.201402 0.468650 -0.265201
0.170367 0.428977 0.016101
0.175137 0.345742 -0.219436
-0.071757 -0.012477 0.110649
-0.117059 0.041933 -0.035866
0.252141 0.404357 0.205261
0.258330 0.175115 0.396759
-0.155826 0.146658 -0.205899
0.071944 0.071455 -0.463805
-0.224580 -0.294913 0.002667
0.042683 -0.075446 0.276083
0.107972 -0.019762 -0.414207
0.106814 0.515683 -0.275416
-0.231262 -0.080605 -0.356141
-0.044571 -0.122107 -0.216155
0.497261 0.220187 0.091572
-0.561702 -0.109359 -0.147504
-0.454116 -0.110006 -0.258634
0.242402 -0.075041 0.312796
0.005892 -0.159051 0.105841
0.293584 0.105438 0.428399
0.392541 -0.074649 0.003463
0.043421 -0.170514 0.162444
0.097572 0.480221 -0.040917
0.025221 0.075108 0.305559
0.373954 0.074947 0.320332
0.152520 0.437796 0.123196
-0.033502 -0.267298 -0.383290
-0.010074 -0.239241 -0.471916
0.461963 0.050003 -0.006601
-0.201499 -0.188012 -0.172805
0.400194 0.323019 0.247445
-0.103131 0.206952 -0.083281
0.346242 0.211250 0.443670
-0.026024 0.304212 -0.103487
0.194861 0.275601 -0.297568
-0.019517 -0.130296 -0.533159
0.059720 -0.174889 -0.003134
0.076009 0.144486 -0.470009
0.369560 0.196281 -0.126408
-0.091990 -0.145016 -0.518731
0.496159 0.172929 -0.021269
0.082052 0.515174 -0.074927
-0.033781 0.072199 -0.457002
0.294166 0.157392 -0.249559
-0.109719 -0.049577 -0.506099
0.265691 -0.144729 0.237255
0.240156 -0.192908 0.135411
0.063386 -0.204791 -0.420166
0.336941 0.393044 -0.241221
0.229312 0.017233 -0.272451
-0.247280 -0.242895 -0.171577
0.284285 0.093548 -0.223407
0.261465 0.168882 -0.297758
-0.088929 0.324104 0.046610
-0.319808 -0.179144 -0.343390
0.223158 -0.088118 0.307917
0.208247 0.399381 0.189130
0.273577 -0.061694 -0.103816
0.419654 0.073641 -0.106069
-0.007571 0.014956 -0.489270
-0.192143 -0.211729 -0.102357
0.099505 0.025449 0.347115
0.078447 -0.161164 0.211433
0.244376 0.311094 -0.253456
0.163271 0.393947 -0.249540
0.022622 0.238733 0.280972
-0.299483 -0.078625 -0.284111
0.486654 0.195454 0.127512
0.286801 0.185230 -0.255136
0.079691 0.460149 -0.188995
0.055637 -0.188868 0.111942
0.185986 -0.119420 0.285701
0.464671 0.315445 -0.084796
0.095279 -0.121780 0.272838
-0.132599 0.204900 0.098902
0.110423 -0.108413 -0.351765
0.128079 -0.192959 -0.012877
0.087710 0.322564 -0.328285
0.138790 0.273279 0.335418
-0.029672 0.277074 -0.052751
0.265835 0.265419 0.394008
0.378285 -0.032103 0.249452
-0.251978 -0.310964 -0.002515
0.458170 0.125016 -0.080945
0.417636 0.321572 0.167577
0.364443 0.250300 0.411131
0.189582 -0.205387 0.141612
0.372761 -0.067967 -0.070703
0.262484 -0.065414 -0.115710
0.137763 0.380207 -0.234697
-0.426392 -0.124036 -0.201403
0.057823 0.130923 0.328547
0.394148 -0.075889 0.029519
0.245410 0.402616 0.241777
0.036965 -0.179557 -0.345945
0.123439 -0.101009 -0.183996
0.406670 -0.042213 -0.045226
-0.103509 0.162575 -0.000510
0.501726 0.255013 0.159428
0.065447 0.120440 0.335596
0.063300 0.283035 -0.389288
0.303088 0.305275 -0.272140
0.296402 -0.104877 -0.001288
0.282544 0.280591 0.389921
-0.094127 -0.234377 -0.276338
0.360452 0.144976 0.452368
-0.060684 -0.247645 -0.449731
0.181944 0.183844 -0.414072
0.088692 0.499637 0.078658
-0.038055 -0.105759 -0.196012
-0.045786 -0.243697 -0.300678
0.100676 -0.165188 0.217627
-0.034048 0.320021 0.164363
-0.031084 0.208304 0.242122
0.187262 0.111191 -0.420823
-0.187040 0.002583 -0.292079
-0.234837 -0.306549 -0.075085
-0.030032 0.111017 0.244589
-0.209216 -0.193096 -0.221925
0.206557 0.438212 -0.085334
0.384539 0.114309 -0.137028
-0.359026 -0.127225 -0.314404
0.170613 0.051032 -0.415088
0.052878 0.182970 -0.461323
0.007858 0.001667 -0.504044
0.474308 0.246582 -0.136990
0.173350 0.478278 -0.177026
0.397828 -0.008369 0.239728
0.053655 0.515511 -0.095635
-0.269305 -0.340357 -0.027723
-0.029435 -0.120989 -0.526723
-0.040494 0.366934 0.047992
-0.546767 -0.183392 -0.276702
0.146001 -0.131689 -0.474542
0.446736 0.245353 0.319913
-0.378431 -0.139836 -0.330496
0.134717 -0.172268 -0.056451
0.355261 0.065920 0.409471
0.456549 0.177622 0.363612
0.221088 0.201085 -0.362149
0.137104 0.502183 -0.250308
0.472005 0.305058 -0.000015
-0.274786 -0.330196 0.014077
0.424456 0.108392 0.278287
-0.162014 -0.216132 -0.111582
-0.121206 0.123380 -0.048002
0.390538 0.331114 -0.290140
0.264571 0.421669 -0.172246
0.139831 0.327870 -0.244807
0.249362 0.404329 0.223417
-0.151901 -0.242366 -0.103813
-0.498762 -0.189617 -0.260450
0.194642 0.401593 0.156920
0.116641 -0.130014 -0.517178
-0.022239 0.297381 -0.088843
0.356741 -0.036091 -0.134415
0.336264 0.397097 -0.286778
0.229085 -0.174902 0.001486
-0.474989 -0.090489 -0.237935
0.469670 0.074143 0.118199
0.182589 0.187380 0.372319
-0.122093 0.272670 0.083161
-0.099936 0.021775 0.039410
0.220189 0.398732 0.072061
0.272191 -0.113305 0.272405
0.369456 0.070055 0.414630
-0.050912 0.081162 0.163043
-0.253816 -0.319751 -0.040507
0.113065 0.053785 -0.444934
0.215937 0.391058 0.155204
0.113463 0.241441 -0.412435
0.226326 0.081058 -0.371798
0.075846 -0.115943 -0.132206
0.126502 0.004644 -0.405012
0.042161 -0.115477 -0.193921
0.330708 0.226420 -0.210779
0.305043 0.293356 -0.262823
-0.128181 0.077588 -0.060681
0.234878 0.221152 -0.320437
0.315776 0.327185 -0.333876
0.430733 0.297921 0.232809
0.080113 -0.181812 -0.012936
0.012196 -0.074854 0.251972
-0.539643 -0.092378 -0.158941
0.408542 0.212381 0.411867
-0.515479 -0.182067 -0.225887
0.018985 0.505731 0.005776
0.454729 0.231324 0.320535
-0.005215 -0.091782 -0.539662
0.226907 0.316574 0.315299
-0.082909 0.335015 0.070027
-0.210389 -0.271933 0.029066
-0.078199 0.281941 -0.315303
0.446796 0.105634 0.334564
-0.259149 -0.276105 0.007812
-0.011507 -0.120349 -0.534421
0.224169 0.357342 0.282525
0.192328 0.466625 -0.154983
0.322512 0.402173 -0.202337
0.185704 -0.117293 -0.123464
0.361241 0.209919 -0.128507
-0.301206 -0.323984 -0.045590
-0.012141 -0.108641 -0.184651
0.433555 0.113725 -0.098532
0.396828 0.341230 -0.295471
-0.245350 -0.086994 -0.316975
0.360641 -0.045820 0.260319
-0.051302 0.285485 -0.135230
-0.267908 -0.167891 -0.361633
-0.145488 -0.109756 -0.491361
0.001453 -0.147675 -0.250585
0.493135 0.101399 0.012218
0.111319 -0.103705 -0.194393
0.497991 0.165145 0.002122
-0.096678 0.150652 -0.409955
0.044657 0.337501 0.239606
0.325115 -0.064328 -0.102772
-0.067478 0.277783 -0.142600
-0.057152 -0.090809 -0.156863
0.494800 0.295550 -0.147036
0.316908 -0.038522 -0.141192
0.386837 0.134894 -0.129540
0.294671 0.376236 0.251942
0.115306 0.278621 0.329311
-0.330694 -0.084443 -0.302864
-0.194038 -0.003984 -0.413089
0.071241 0.521409 -0.077739
-0.087059 0.278200 -0.012390
0.068977 0.248482 0.313926
0.414806 -0.009999 -0.065184
0.141104 -0.204130 0.144862
-0.114471 0.150547 0.107183
-0.447954 -0.106160 -0.196426
-0.076265 0.257877 -0.360313
-0.077154 -0.047900 -0.017932
0.408635 0.183297 0.425133
0.307236 0.397470 -0.163847
-0.128366 -0.007110 -0.108981
-0.370438 -0.091557 -0.300522
-0.159750 0.131271 -0.243305
-0.033683 0.032551 -0.485847
0.348493 0.326540 0.323838
0.476579 0.170655 -0.049247
0.013941 -0.181789 -0.306626
0.221395 0.394909 0.096954
0.051570 0.372371 -0.023017
-0.128264 0.074083 -0.403616
-0.152792 0.164072 -0.238773
-0.095529 0.042978 0.054059
0.366918 0.307530 -0.256924
0.234726 -0.022004 -0.210835
-0.136551 -0.238480 -0.285856
-0.007422 -0.127254 -0.017326
0.130070 0.506193 -0.291923
0.003912 0.187583 -0.457140
-0.378485 -0.153226 -0.334841
0.456471 0.063879 -0.051607
0.072793 -0.173705 -0.025577
-0.075811 -0.262614 -0.352203
0.027626 0.335139 -0.092120
0.258010 0.295670 0.344232
0.118688 -0.012940 -0.395255
-0.308621 -0.088485 -0.311857
0.337167 0.356398 0.172599
0.360661 0.257986 -0.162000
0.248411 0.395494 0.166947
-0.211057 -0.248842 -0.247834
0.057430 0.384454 -0.174036
-0.222409 -0.082047 -0.388148
-0.443604 -0.100878 -0.259139
-0.094218 0.307655 0.021266
-0.188369 -0.170209 -0.210606
0.147678 -0.073582 -0.481542
-0.212225 -0.174770 -0.412974
-0.200116 -0.287922 -0.217091
-0.083651 -0.232051 -0.472029
0.112455 0.480480 0.052025
-0.084037 0.298667 -0.217876
0.202147 -0.024873 -0.264239
-0.169281 -0.122657 -0.473296
0.214103 -0.012490 -0.246455
-0.008902 0.012412 0.242402
0.168151 0.385011 -0.239641
0.092610 0.505568 -0.274348
0.261240 0.437344 -0.247476
0.083447 0.506331 -0.203928
-0.369028 -0.198519 -0.289565
0.440601 0.243160 0.336905
-0.332831 -0.171530 -0.344607
0.142506 0.446831 -0.020425
0.177870 -0.187133 0.200878
-0.182209 -0.295220 -0.197155
-0.141647 -0.181514 -0.181854
-0.032823 0.053852 -0.462658
0.391453 0.347096 -0.146896
-0.218578 -0.335436 -0.142698
0.123269 0.422185 -0.278394
-0.073706 0.101547 0.118939
0.069131 -0.098515 -0.230454
-0.090464 -0.003993 0.048444
-0.100054 0.134256 -0.410493
0.114701 -0.165270 0.223660
-0.138048 0.197890 -0.166531
0.098685 -0.015528 -0.491018
0.392198 0.012546 -0.144996
-0.126385 0.098014 -0.383289
0.001092 0.367527 0.005051
0.207278 -0.160755 -0.047875
0.119393 0.461936 -0.062729
0.341194 -0.127360 0.115145
-0.548476 -0.118724 -0.154786
0.107783 -0.054331 -0.346590
-0.003121 0.316017 0.212848
0.216008 0.441019 -0.168888
-0.041264 -0.101190 0.009704
0.447427 0.290543 0.035787
0.396025 0.315798 0.090978
-0.072409 -0.204847 -0.508525
0.170810 0.299418 0.336314
-0.175631 -0.199287 -0.442746
0.401360 0.314714 -0.054030
0.306250 0.374744 -0.087980
0.141424 0.403212 0.263876
-0.056637 0.244979 -0.395466
-0.038903 -0.228496 -0.300984
-0.000229 -0.123694 -0.539442
0.165984 0.121612 0.368761
-0.217989 -0.237872 -0.241785
0.314054 0.364876 0.196466
0.328211 0.359076 -0.069315
0.079862 0.367548 -0.212544
0.078991 -0.202036 -0.442091
0.458492 0.292244 0.086097
0.224143 -0.013534 0.354036
-0.057604 -0.183250 -0.263400
-0.116084 -0.242861 -0.409096
0.214458 -0.181861 0.002465
0.491240 0.210170 0.015179
0.005142 0.319037 -0.310658
0.259156 -0.170447 0.088957
0.038472 0.438269 -0.046536
0.250897 -0.071545 -0.127775
-0.117809 0.168478 0.125510
0.108809 0.514739 -0.224252
0.372911 0.333383 -0.069439
-0.243380 -0.256497 -0.194355
-0.308902 -0.348712 -0.033660
0.088299 0.469483 0.121357
0.455628 0.189722 0.242966
0.062618 -0.030220 -0.546255
-0.251355 -0.312493 -0.162779
0.158003 -0.123323 -0.442842
0.086087 0.328471 0.296630
0.098073 -0.172907 0.203369
0.239430 -0.116655 0.280933
0.354169 0.092783 -0.152292
0.446982 0.232598 -0.130616
-0.187085 -0.106136 -0.250926
0.175753 0.414955 0.269876
-0.117756 0.152757 -0.065577
0.197027 0.411830 0.052927
0.239578 0.064768 -0.327725
0.266280 0.431322 -0.214635
-0.012537 0.386268 0.035347
0.365238 0.322170 0.318500
0.041397 0.370527 -0.123763
0.306544 -0.115842 0.035973
0.086712 -0.092154 0.295125
0.185905 -0.092275 -0.151124
0.152971 -0.174776 0.218368
0.058373 -0.129790 -0.098226
0.026088 -0.206944 -0.372774
0.314754 -0.133816 0.181267
0.105420 0.461532 0.005182
-0.116868 0.065906 -0.012899
-0.163189 -0.140639 -0.230811
-0.341489 -0.366290 0.029897
-0.110830 0.240294 0.134016
-0.044578 -0.258324 -0.420858
0.093564 0.392070 0.226967
0.271556 0.433439 -0.237360
0.297208 0.150017 0.448258
-0.510996 -0.088746 -0.173494
0.375291 0.204572 0.437049
0.227975 0.047119 -0.338698
-0.061874 -0.081348 -0.127145
-0.119340 -0.017347 -0.496765
-0.237836 -0.353855 -0.090986
0.436777 0.138737 -0.103769
0.171688 0.422138 0.071252
-0.217890 -0.307614 -0.112317
-0.211774 -0.033017 -0.360973
0.211231 -0.053043 -0.192664
0.349240 0.270945 -0.203090
0.199877 0.468986 -0.247358
-0.171278 -0.262093 -0.028855
0.355160 0.360711 0.125135
0.255375 0.365722 -0.294348
0.070882 0.405965 -0.170545
-0.324870 -0.182060 -0.266921
0.261768 0.381751 0.041042
-0.049993 0.228905 -0.415450
0.379687 0.329618 0.282586
-0.153317 0.127447 -0.294953
0.326893 0.362358 0.248407
0.273463 0.201787 -0.264330
0.303602 -0.085128 -0.025551
0.154311 -0.102612 -0.415823
-0.144280 0.054333 -0.127961
-0.143437 -0.002524 -0.139539
0.154895 -0.109582 0.294639
-0.154284 -0.058273 -0.221664
0.396600 0.166695 0.434560
0.037659 0.053229 -0.464383
-0.070513 -0.126262 -0.220535
0.051527 0.345212 -0.244899
-0.535133 -0.110260 -0.160653
0.435137 -0.027822 0.093794
0.051632 0.484866 0.068458
0.120689 0.469350 0.066560
0.497480 0.191842 0.076016
-0.047177 0.062178 -0.455641
-0.187930 0.021177 -0.378856
-0.051163 -0.045493 -0.528367
-0.016442 -0.104689 -0.140582
-0.072971 -0.052804 -0.033310
-0.191738 0.015679 -0.390794
-0.120275 0.194573 -0.127347
-0.025894 0.380014 0.045281
-0.110475 -0.069480 -0.503335
-0.083035 0.308618 0.010903
-0.094962 0.221753 -0.380809
-0.096814 0.204354 -0.391285
0.408211 -0.056483 0.105477
0.220363 0.456522 -0.289700
0.099590 -0.120377 -0.132124
0.396275 -0.077229 0.135908
0.142651 -0.044030 0.341764
0.371156 0.339627 0.182021
0.339480 0.067652 0.406538
-0.074969 -0.084852 -0.178671
0.186643 0.258189 0.350381
0.437888 0.198610 0.390036
0.179744 -0.168418 -0.056025
-0.056900 0.158100 -0.442639
-0.066200 -0.070267 0.072209
-0.527926 -0.150162 -0.255264
0.486147 0.259270 -0.121400
0.248519 0.223570 0.375576
0.078921 0.465626 -0.159724
-0.128877 -0.148859 -0.221940
0.448449 0.001681 0.127427
-0.063350 0.347935 0.055479
0.364072 0.111347 0.444949
-0.220657 -0.299387 -0.102615
-0.239422 -0.186357 -0.318854
0.162422 -0.194654 0.185637
0.211793 0.196621 0.370679
0.127984 -0.032726 -0.470681
-0.036302 -0.103447 0.132375
0.050683 0.491917 -0.096309
0.155278 0.051908 -0.426777
-0.179717 -0.286414 -0.211948
0.006500 0.304491 -0.345514
-0.283787 -0.193813 -0.319639
0.010916 -0.157408 0.140246
-0.084450 -0.041432 -0.070770
-0.097760 0.070924 -0.439024
0.192883 0.447938 -0.091969
0.326451 0.235362 -0.227277
0.151117 0.445407 -0.063813
-0.132134 0.021184 -0.470997
0.033434 -0.109230 -0.549864
0.233505 0.350030 -0.238514
0.221903 -0.121636 -0.093102
0.252426 0.382518 0.079028
0.429036 0.111821 0.302357
-0.094196 0.042948 -0.482873
-0.194959 -0.260571 -0.249528
0.382602 0.278703 -0.187543
0.162718 0.458611 -0.312291
0.006685 0.069392 -0.465775
0.024533 -0.121116 -0.546438
0.127715 0.501355 -0.174838
0.136084 0.127979 0.364604
-0.057880 -0.051737 0.127235
0.253495 -0.127600 0.266455
0.061230 0.337360 -0.282639
-0.069212 -0.030699 0.103384
-0.237918 -0.348301 -0.121276
-0.041385 0.364058 0.118968
0.026957 -0.173807 0.094089
0.504488 0.184171 0.032200
-0.027668 0.049547 0.216627
-0.334598 -0.372170 0.012314
0.085259 0.347380 0.274461
0.259773 0.192453 -0.286433
0.141300 0.235237 -0.408507
0.018878 -0.236734 -0.388826
-0.189569 -0.141962 -0.261824
0.044017 0.436577 0.096356
-0.221144 -0.192323 -0.354942
0.283951 0.118813 0.427012
-0.379314 -0.064404 -0.250700
-0.209954 -0.131502 -0.427005
0.221055 0.374702 -0.232830
0.170784 0.231450 -0.392569
-0.179904 -0.217772 -0.093489
0.016497 -0.144263 -0.541431
0.200239 0.418021 -0.017677
-0.012855 -0.065919 0.227135
0.134535 0.470795 0.104391
0.026220 -0.169332 -0.534688
0.489403 0.249435 -0.008641
0.126201 0.445904 0.204251
0.066395 -0.160998 -0.343662
0.221347 0.272162 0.340618
0.438622 0.005932 -0.047547
0.369689 0.348182 -0.143930
0.019318 0.423157 0.055874
-0.004352 -0.114483 -0.061666
0.150456 -0.145306 -0.098685
0.427353 -0.044824 0.039468
-0.005572 0.324530 -0.138317
0.373531 -0.042678 -0.113410
0.347143 0.073649 0.422978
0.010221 0.409364 0.040574
0.211890 0.413796 0.263593
-0.064898 0.084692 -0.441696
0.496436 0.207764 0.120454
0.077730 -0.195990 0.054299
0.092405 0.498095 0.011879
0.364977 -0.091415 0.013431
0.060630 0.495278 -0.103834
-0.147966 0.086824 -0.134532
0.318957 0.359456 0.208434
-0.041226 -0.100641 -0.177770
0.424072 -0.029468 -0.031462
-0.301641 -0.158968 -0.353997
0.203284 0.466470 -0.234114
0.123054 -0.057239 -0.389299
-0.076619 -0.255752 -0.304815
0.201703 0.411362 -0.275613
0.399388 -0.024633 -0.088777
0.272222 0.166742 0.431389
-0.410133 -0.168431 -0.323989
-0.062148 -0.058461 0.095937
0.090002 0.024060 -0.441630
-0.183075 0.033219 -0.358960
0.224089 0.449757 -0.203349
0.007993 0.302444 0.230461
0.352892 0.064092 0.366895
0.041484 0.527750 -0.078937
0.050366 0.165680 -0.470748
-0.224743 -0.191358 -0.332148
0.277677 0.253179 0.410726
-0.135870 -0.240376 -0.177605
0.260549 0.353332 -0.293578
-0.135798 0.092174 -0.085417
-0.452932 -0.189312 -0.293113
0.166445 -0.172529 0.223619
-0.379511 -0.172343 -0.331289
0.366192 0.338965 -0.095109
0.218065 -0.002222 -0.266025
-0.154951 0.104586 -0.154262
0.300277 -0.042409 -0.131774
0.150408 0.496043 -0.264786
0.002943 0.387323 0.147148
-0.172893 -0.268594 -0.170666
0.498429 0.164363 -0.010877
-0.131303 -0.093469 -0.212953
-0.379773 -0.081432 -0.226739
0.118127 0.455605 -0.000378
-0.022841 0.331317 0.175517
0.118114 0.439397 -0.290516
0.086518 0.224421 -0.433530
0.172819 0.434136 -0.055907
-0.071396 -0.243643 -0.290805
-0.321963 -0.073769 -0.274337
-0.112498 0.162988 0.137112
0.309564 0.152426 -0.208934
0.146088 -0.098518 0.304813
-0.222161 -0.279973 0.043490
0.386719 0.317354 0.037189
0.038208 -0.140687 -0.065184
0.145809 -0.084523 -0.193752
0.063586 0.373412 -0.195754
0.281372 -0.091430 -0.050202
0.049900 -0.217312 -0.485431
-0.159515 0.072617 -0.283107
-0.209132 -0.191713 -0.187185
0.070109 0.480428 0.092260
-0.189818 -0.127904 -0.457468
0.281584 0.369527 0.070231
-0.099590 -0.211776 -0.495509
0.206650 0.404171 0.272249
0.159061 -0.091007 -0.425574
0.316468 0.229991 -0.237928
0.298897 -0.114513 0.247921
0.004827 -0.111881 -0.087125
0.491046 0.116334 0.115006
-0.107257 -0.000798 -0.054211
0.302633 0.126539 -0.175729
0.399231 -0.070025 0.018863
0.500444 0.288721 0.038101
-0.103682 0.152496 0.028769
0.254988 0.075043 0.369792
0.118027 -0.103512 -0.375403
-0.281551 -0.339628 -0.095224
0.241104 0.447939 -0.264022
0.223630 -0.132959 0.268785
0.402201 0.128825 -0.125826
0.095383 -0.134000 -0.106113
0.230344 -0.163092 -0.023222
0.465378 0.218342 0.266927
0.224763 0.456747 -0.264666
0.314482 -0.107764 0.024667
0.400844 0.085251 -0.134232
-0.235757 -0.242555 -0.055956
0.494176 0.159465 0.095394
-0.132376 0.156689 -0.115096
0.250810 0.143201 -0.342826
0.434217 0.068940 0.246049
0.383075 0.190843 -0.123287
0.189434 0.429571 0.193826
-0.109308 0.032630 -0.025151
-0.038361 0.231539 0.227574
0.308104 0.339269 0.316887
-0.242800 -0.126660 -0.373774
0.259767 0.392634 0.252104
-0.047175 0.313065 -0.179878
0.242685 0.325750 -0.250631
0.096427 -0.108653 -0.201039
0.242172 0.391726 0.041284
0.089802 0.452420 -0.252911
0.024516 0.081647 -0.473133
0.283512 0.393671 0.143485
-0.325083 -0.353987 0.059658
0.477469 0.189830 -0.043987
0.255257 0.344976 -0.266724
0.066013 0.373540 0.230229
0.294540 0.216470 0.439077
0.077879 0.512509 -0.013908
-0.131392 0.212415 -0.214638
-0.087396 0.248804 -0.355287
0.340981 0.362621 0.153797
0.328090 0.160771 0.455845
-0.022357 -0.258779 -0.420788
-0.565342 -0.136610 -0.201244
0.338902 0.200783 -0.134790
0.403954 0.348259 -0.233469
0.330802 0.283552 -0.244105
-0.082426 -0.046866 -0.085117
0.311682 -0.067501 0.289120
0.228675 0.140967 0.374238
0.305262 -0.069003 -0.088003
0.467899 0.236615 -0.104149
0.395438 0.308985 0.069567
0.120638 -0.203128 0.024401
-0.208715 -0.190581 -0.209499
0.334525 -0.000917 -0.166460
0.490331 0.159345 -0.029578
-0.130336 -0.192124 -0.187359
-0.292976 -0.355430 0.007374
-0.020908 0.310075 -0.144999
0.357858 -0.008699 0.291289
0.145574 0.108178 -0.448240
-0.047034 0.125358 -0.455242
0.370795 0.180717 -0.126101
0.288861 0.089553 -0.179233
0.363490 0.299956 -0.236786
-0.279504 -0.088684 -0.271969
-0.316075 -0.174717 -0.261044
-0.087785 -0.210984 -0.262683
0.365524 0.271601 0.391181
-0.364384 -0.134150 -0.328822
0.086573 -0.188359 -0.503162
-0.010903 0.398179 0.080734
0.151811 0.283836 -0.350401
0.080318 -0.002782 -0.476263
-0.456651 -0.068006 -0.244907
0.236777 0.198793 -0.337324
0.122649 -0.093802 -0.198869
-0.057482 -0.038784 0.166523
0.125331 -0.109833 -0.154666
-0.110845 0.267702 -0.225495
-0.221163 -0.258556 -0.231709
0.271928 0.413443 -0.144498
0.083742 -0.202036 0.088386
0.248463 0.062930 -0.313422
-0.225691 -0.256665 -0.012078
-0.173691 -0.142841 -0.239769
-0.015543 0.205079 0.257799
0.461728 0.200284 0.227452
0.050636 -0.179458 0.034789
-0.246750 -0.323871 -0.067164
-0.129406 0.218073 -0.321957
0.228749 -0.056572 -0.171504
-0.119157 0.252369 0.009456
-0.090715 0.067414 0.087483
-0.159704 -0.183996 -0.493190
0.490264 0.303782 -0.130925
0.131887 0.192801 0.353810
0.039365 0.073910 -0.470556
0.298199 -0.140191 0.205125
-0.032625 0.298840 -0.352258
-0.247569 -0.169456 -0.288530
0.080682 0.434783 -0.180484
-0.106570 -0.244957 -0.419369
-0.107757 0.221585 -0.122487
0.232351 0.418638 -0.068695
0.035127 0.349338 -0.101856
0.105056 -0.208290 0.092539
-0.528260 -0.185681 -0.230449
0.007328 -0.251790 -0.388538
0.448769 0.290377 0.055357
0.485689 0.083791 0.005705
-0.066115 0.096924 0.132180
0.063560 0.519424 0.005752
0.097422 -0.187966 -0.460011
0.294633 0.365588 0.043730
0.133286 -0.151522 -0.439470
-0.160988 -0.271257 -0.217051
-0.106901 0.123774 0.015585
0.171229 0.427185 0.163063
-0.346887 -0.172460 -0.340778
-0.184777 0.026247 -0.393458
-0.094022 -0.041510 -0.095059
0.347285 -0.102276 0.036268
0.113639 -0.069495 -0.281633
0.336692 0.351272 0.277131
-0.207022 -0.161947 -0.443633
-0.530044 -0.082608 -0.200200
0.027630 0.190114 -0.458098
-0.096863 0.140324 0.039723
-0.524336 -0.152023 -0.273629
-0.276576 -0.102303 -0.336254
0.469121 0.190738 0.272547
-0.121095 0.106518 -0.018362
0.134840 -0.144303 0.257771
0.228471 -0.106628 -0.106600
0.014605 -0.107043 -0.215138
0.069575 0.091194 -0.470191
0.172464 -0.143980 -0.094724
0.005244 -0.198449 -0.517789
0.388182 0.035911 -0.151954
0.493802 0.146679 0.098332
0.091640 0.510759 -0.137313
0.033309 0.165171 0.308866
0.045217 -0.157799 -0.032786
0.147676 -0.202324 0.020526
0.110955 -0.098707 -0.513196
0.310603 0.365213 0.163657
0.144460 -0.186060 -0.027578
0.195926 -0.034756 -0.255514
-0.070285 -0.057374 -0.008391
0.418941 0.251903 -0.165284
0.226508 0.455152 -0.234078
0.188911 0.243373 -0.361495
-0.113812 -0.098080 -0.209599
-0.397292 -0.111317 -0.285793
-0.102018 0.107781 0.039129
-0.138479 0.119881 -0.356816
-0.088004 0.024454 0.105983
0.448012 0.018195 -0.012602
0.113833 -0.042464 -0.351812
0.305207 0.185927 -0.238419
0.231396 0.450957 -0.219285
0.347819 0.349072 -0.080240
-0.092832 0.022850 0.052523
0.042438 0.089072 0.323012
0.238251 0.433575 -0.177615
0.123250 0.068969 -0.445604
0.367098 0.332493 -0.014234
0.407063 0.075165 0.393480
0.458017 0.039184 -0.017868
0.094006 -0.127807 -0.534725
0.373789 0.303278 -0.224905
0.074403 0.297432 -0.363041
0.007658 0.338813 0.203869
0.117049 -0.082835 -0.511173
-0.425123 -0.114619 -0.275390
0.278671 -0.153783 0.081710
-0.025260 -0.164075 -0.261553
0.120714 0.361808 0.279469
-0.010695 0.133322 0.272771
0.339680 0.015894 0.319859
-0.049507 -0.078899 -0.042800
-0.016095 0.332012 -0.231598
