0.251048 -0.183921 0.111930
0.079410 0.516174 -0.069896
0.183245 -0.010424 0.358744
0.064511 0.190303 0.326778
0.366659 0.329801 0.023662
-0.468542 -0.142725 -0.298862
0.480554 0.130389 0.157024
-0.121736 0.092013 -0.392783
-0.072981 0.309513 0.003784
0.184080 0.428741 -0.055178
0.492209 0.205437 0.111712
0.487525 0.097797 0.049981
-0.076069 0.240521 -0.089490
0.281913 0.256252 0.411172
0.144871 -0.076524 -0.407747
0.014276 -0.113380 -0.188310
0.034541 -0.179678 -0.336671
0.045103 0.425667 0.132047
0.147242 -0.132438 -0.470676
0.284487 0.082749 -0.198174
0.249200 0.440593 -0.214365
0.060495 0.388279 -0.107395
0.227752 -0.180117 0.028838
0.265257 0.424162 -0.096009
0.436842 -0.021148 0.058910
-0.037296 0.102723 0.226069
0.035802 0.535342 -0.039826
0.057499 -0.134559 -0.275515
0.363265 0.350983 0.137152
-0.197155 -0.242736 -0.264885
0.141163 0.107848 -0.449539
-0.078344 0.327134 0.109707
0.475863 0.243124 -0.113126
-0.146472 0.181795 -0.180485
-0.307892 -0.368958 0.019688
0.277338 0.061808 -0.186752
0.080338 0.486010 -0.180516
0.313598 0.245740 0.426469
0.134293 0.004326 0.356420
0.103473 0.464893 -0.017626
-0.031347 -0.112920 0.130353
-0.144872 -0.119180 -0.226559
0.262839 0.343640 -0.283776
0.067828 0.164097 0.330682
-0.007667 -0.252670 -0.344845
0.152307 -0.093555 -0.480807
0.132989 -0.175042 0.213594
0.219943 -0.052304 0.334690
0.151757 0.309999 -0.299700
0.354351 0.115006 -0.144821
-0.129651 0.128868 -0.373740
-0.119728 0.118114 -0.033320
0.365387 -0.101113 0.082887
0.262671 0.374173 -0.321947
0.095451 0.180940 0.344686
0.036421 0.519562 0.025192
-0.030759 -0.175618 -0.271527
0.304101 -0.117263 0.237593
0.160381 -0.060802 -0.253814
0.034486 0.259967 -0.405985
0.018835 -0.186528 -0.525704
0.027824 0.356552 -0.159776
-0.247029 -0.243662 -0.072578
0.145564 -0.208239 0.132042
0.170421 -0.083933 -0.176166
0.257526 -0.101188 -0.081910
0.210700 0.276728 -0.264165
-0.114325 0.097550 0.012962
0.095937 -0.205494 0.074685
-0.052822 0.273909 -0.112011
0.495214 0.269236 -0.049586
-0.269171 -0.282809 0.017773
-0.103130 0.248152 0.137204
-0.508553 -0.077519 -0.213646
-0.318933 -0.133629 -0.238255
0.022661 -0.226438 -0.380079
-0.056926 0.140052 -0.447522
0.048402 0.480258 0.068257
0.088389 0.518513 -0.235794
0.178913 0.119694 0.371962
0.194067 0.367356 -0.223949
-0.105295 0.178766 -0.003141
0.081367 0.105097 0.352933
0.270669 -0.130142 -0.021341
0.382492 0.315039 -0.244906
0.126971 0.034676 0.364672
-0.032864 -0.164191 -0.257936
0.252220 0.255440 0.382173
0.073741 0.298827 0.292592
-0.105497 0.154932 -0.012702
0.175559 0.146259 -0.429151
0.237034 0.059148 0.370123
0.253020 0.266600 0.372027
-0.067360 -0.182913 -0.519406
-0.158287 -0.106713 -0.473487
0.241675 0.204869 -0.324135
0.102345 -0.182609 -0.029421
-0.095239 0.290572 -0.252796
0.406828 0.318103 0.248686
0.437322 -0.018718 0.045589
0.170341 0.278845 -0.336853
-0.056951 0.261991 0.187298
0.065140 0.518713 0.004157
0.348550 -0.086494 -0.042695
-0.001089 -0.111706 -0.179099
-0.108199 0.255553 -0.003078
-0.046667 0.361687 0.110069
0.023692 -0.239509 -0.406526
0.173116 0.304417 -0.273834
0.093228 0.483109 -0.004604
0.346790 0.340542 0.024572
0.420504 -0.011941 -0.056120
0.454122 0.252449 0.255299
0.224830 -0.153121 -0.043993
0.143392 -0.037791 -0.327251
-0.201672 -0.249535 -0.023678
0.343676 0.070929 -0.165058
-0.389551 -0.172475 -0.232641
0.377768 0.355700 -0.152813
0.388530 -0.060425 -0.057751
-0.225199 -0.102651 -0.391284
0.046819 -0.099971 0.262949
0.272306 0.065498 -0.231885
-0.210268 -0.095755 -0.407854
-0.024883 0.378983 0.120869
0.113843 -0.053238 -0.377379
0.466200 0.198193 0.266628
-0.297039 -0.351794 -0.057817
0.078452 0.519114 -0.104977
0.264831 0.300744 0.349759
0.336904 0.352988 0.078208
0.144263 -0.098301 -0.170220
0.065592 0.219296 0.320359
-0.052505 -0.095665 0.047056
-0.134292 -0.237953 -0.185519
-0.094213 0.317720 0.089996
-0.082708 -0.227300 -0.480452
0.127280 -0.049464 -0.401608
0.259396 0.425116 -0.178669
-0.408991 -0.067869 -0.225627
0.312656 -0.138239 0.175797
0.096782 -0.084596 -0.541357
-0.041486 -0.114474 -0.521042
-0.290065 -0.385292 -0.042249
0.481440 0.091124 0.086404
0.092363 0.189519 -0.454137
0.111833 -0.019775 -0.425245
0.282041 0.409433 -0.342890
0.257082 0.398691 0.233921
0.051391 0.338602 -0.051332
0.423071 0.344085 -0.186746
0.217095 -0.170942 0.225893
-0.080916 0.126715 0.175727
0.492303 0.278196 0.152000
0.190272 -0.185237 -0.014929
-0.239279 -0.117564 -0.267367
0.306725 0.404585 -0.352739
-0.287258 -0.336215 -0.084541
-0.320556 -0.196724 -0.315495
0.234829 0.438480 -0.093090
-0.193542 -0.285350 -0.143355
-0.146313 -0.166568 -0.196345
0.266712 0.251225 -0.261034
0.054100 0.385034 -0.127180
0.432809 -0.030529 -0.006960
0.328520 0.187572 -0.138869
-0.189601 0.018404 -0.377862
-0.147906 -0.231056 -0.359262
0.333125 0.228709 -0.150180
0.486558 0.110934 -0.017590
-0.223599 -0.254314 -0.016285
0.435248 0.090866 0.356738
0.322921 0.341194 -0.343801
-0.294402 -0.339152 -0.068133
0.446499 0.255424 -0.162404
0.242573 0.415298 -0.071290
0.154699 -0.066473 -0.457120
-0.193901 -0.048821 -0.427886
-0.039020 -0.099159 -0.004637
0.255653 0.424051 -0.165998
0.343951 0.005675 -0.167748
-0.532134 -0.094436 -0.162354
0.065238 0.103541 0.340554
-0.132694 -0.017625 -0.123752
0.031717 -0.151252 0.188378
0.111580 0.154266 0.351703
0.333501 0.114374 -0.151410
0.299396 0.182102 -0.242942
-0.115607 -0.208654 -0.492702
0.164545 0.055071 -0.422915
-0.157128 -0.028525 -0.232485
0.047161 0.341588 -0.270963
-0.020299 -0.041181 0.225970
0.231056 -0.098126 -0.115532
0.274463 0.161363 -0.272296
0.224344 0.416157 -0.062378
0.444740 0.300723 0.115329
0.165146 0.433670 -0.001712
0.463819 0.247083 -0.149315
0.388504 -0.043180 -0.087966
0.238834 0.390192 0.068940
-0.224514 -0.209266 -0.139821
-0.083982 0.027957 -0.496305
0.098061 0.495646 0.083921
0.055544 0.388583 -0.139945
-0.178355 -0.054215 -0.247854
0.131272 -0.039866 -0.426868
-0.001441 0.406013 0.088241
0.251698 0.403488 0.220213
0.030311 0.470098 0.045106
0.350569 0.145147 -0.138375
0.492362 0.111542 0.001252
0.440663 0.110552 0.382525
0.468182 0.136648 -0.067114
0.427498 0.205853 0.398843
-0.270727 -0.265653 -0.073519
-0.140286 0.176861 -0.324324
-0.350678 -0.070469 -0.264553
-0.492679 -0.133991 -0.255791
0.011376 -0.247567 -0.390267
0.451922 0.114488 0.323656
0.129667 0.095572 0.373111
0.282197 0.368305 0.080434
0.053803 0.324270 -0.325776
0.305932 -0.084004 -0.038431
0.174833 -0.203087 0.165089
-0.181619 -0.297408 -0.188898
-0.118364 0.246105 -0.196464
0.095848 -0.083048 0.304675
0.383653 0.316257 0.065677
0.371766 0.142427 0.448828
0.435497 0.335332 -0.154427
0.269372 0.362121 -0.324504
0.182501 0.208538 -0.401934
-0.057806 0.286014 -0.343513
-0.184853 -0.274356 -0.099194
-0.124082 -0.178961 -0.208164
0.060819 0.357660 0.246810
-0.042492 -0.011092 -0.523201
-0.077769 0.115058 -0.432255
0.032318 -0.102615 -0.551589
0.196383 -0.037191 -0.226125
0.230336 0.399532 0.023518
0.358733 0.093325 -0.150904
-0.084990 -0.072499 -0.139802
0.230178 0.229123 -0.319765
0.294659 0.401040 -0.138359
0.048065 -0.032129 0.304391
0.051941 -0.181186 0.040457
0.365983 0.344367 0.171183
0.176766 0.396200 -0.255704
-0.605755 -0.169682 -0.157233
0.050302 0.086046 -0.472422
0.030992 0.283277 -0.389039
0.229558 0.389401 0.116455
-0.164737 -0.153410 -0.220072
-0.388430 -0.096742 -0.288104
-0.496200 -0.170459 -0.208808
0.488621 0.188309 -0.023667
0.201024 -0.090016 -0.149218
0.292583 0.308897 -0.273034
0.317462 0.359980 0.211836
-0.145912 0.138590 -0.328153
-0.276110 -0.138222 -0.356246
0.277073 0.332055 0.312945
0.065712 0.399240 -0.112366
-0.251527 -0.280880 0.059805
0.047465 0.376667 -0.020019
-0.085970 0.118698 0.082616
0.120735 0.457599 -0.038288
0.153411 0.021957 -0.403876
0.471741 0.097333 0.167632
0.341048 0.395352 -0.295034
0.036157 0.396102 0.171678
0.065744 -0.109254 -0.212494
0.264907 0.150872 0.402969
0.113856 0.331968 -0.265142
-0.121537 0.178483 0.026407
0.070566 -0.114813 -0.150433
-0.004377 -0.140012 0.017797
-0.204340 -0.283249 -0.111444
-0.402618 -0.181738 -0.240640
0.291673 -0.004584 0.333278
-0.079013 -0.261517 -0.345579
0.459948 0.241374 0.268389
0.301118 0.350351 0.293938
0.377447 0.325903 0.299215
0.224291 -0.187766 0.182997
-0.409372 -0.159496 -0.326396
-0.283156 -0.284854 -0.041355
0.237657 0.402007 -0.037273
0.084912 0.421646 -0.197309
0.397622 0.306960 -0.204038
0.189272 0.418530 0.030404
0.428050 0.291073 0.055226
-0.223698 -0.343142 -0.113059
0.343658 0.167867 0.453570
0.486902 0.081716 0.026156
-0.050503 -0.249475 -0.301416
-0.108493 0.268569 0.114304
-0.013643 -0.147502 -0.245544
0.445863 0.150810 0.391041
0.377419 -0.054263 0.232951
0.176290 -0.039356 -0.279453
0.051961 -0.141887 0.221661
0.048800 -0.030087 -0.548055
0.267126 -0.139476 -0.010892
0.267628 0.272872 0.387878
-0.306869 -0.165189 -0.255600
0.024467 0.198712 0.290939
-0.264414 -0.085183 -0.311990
0.226689 -0.067595 0.322560
0.091163 -0.073143 -0.546204
0.437217 0.126936 0.394814
0.129188 0.453174 -0.026901
-0.216585 -0.286682 -0.213455
-0.010359 0.328253 -0.264127
0.253159 0.011374 -0.223805
0.303273 0.083923 0.364419
-0.173536 -0.215909 -0.314184
0.032256 0.330114 0.226200
0.231386 0.403772 0.196952
0.489757 0.304648 -0.133802
-0.095303 0.074360 0.062731
-0.144923 -0.168055 -0.510773
0.458893 0.302794 0.129235
0.327730 -0.134131 0.098017
0.126923 -0.128641 -0.397974
-0.419066 -0.168975 -0.321565
0.074311 -0.188199 0.023328
0.466550 0.303081 -0.183623
0.181225 0.092231 0.374368
0.353258 0.232750 0.430677
-0.571989 -0.158164 -0.157004
0.062216 -0.163689 -0.341095
-0.040347 0.095877 0.207062
0.121595 -0.163395 -0.459136
-0.048504 -0.091614 0.096708
0.091733 -0.190702 -0.492291
0.077323 -0.159112 -0.387617
0.151789 -0.068574 -0.425828
0.060365 -0.183196 0.147613
-0.017895 0.310365 -0.332103
-0.090181 0.006911 0.052204
-0.051945 -0.073778 -0.095934
0.058490 -0.119236 -0.119554
0.205648 -0.065663 -0.179306
0.051989 0.526365 -0.015414
0.096924 0.483379 -0.276297
0.068047 -0.167805 0.191976
0.212389 0.451843 -0.145037
0.428832 0.255292 -0.170218
0.355108 0.029918 -0.171018
-0.210523 -0.044130 -0.382856
0.037091 -0.033731 0.295142
0.494383 0.144576 0.103532
0.220791 0.403242 0.033049
0.455851 0.056150 -0.055563
0.050043 0.354845 0.235099
0.313848 0.156562 -0.179059
0.358398 0.344255 -0.341375
0.260628 0.437422 -0.291684
0.212764 -0.187299 0.031148
0.314550 0.358711 0.016783
0.230565 0.013205 -0.245020
-0.089770 0.156013 -0.414465
-0.365198 -0.066335 -0.262947
0.123049 0.265020 0.334136
0.219212 0.037987 -0.347722
0.069323 -0.187370 -0.412175
0.345474 0.351272 -0.349176
0.054007 0.003362 0.322302
0.394649 -0.064165 0.183805
-0.227267 -0.277552 -0.214232
-0.035741 -0.222790 -0.495683
-0.061679 -0.099455 -0.196543
0.355124 0.319548 0.332066
0.195668 0.404892 -0.268370
0.434683 -0.028869 0.006963
0.420794 -0.048951 -0.001950
0.512234 0.243913 0.099153
-0.056832 -0.081734 0.024603
0.131563 -0.213163 0.074511
-0.021500 0.380603 0.037776
0.170354 0.242339 -0.381764
0.470659 0.298186 0.097509
-0.130706 0.221135 -0.169372
0.050721 0.456719 -0.086115
0.303125 -0.080556 -0.053507
-0.072151 0.261741 0.173584
0.145216 0.445358 -0.019120
-0.498674 -0.187368 -0.246135
0.509773 0.229476 0.111726
0.320962 0.317783 -0.324023
-0.081890 0.238212 -0.379037
0.353831 0.071446 0.420039
0.111928 0.121680 -0.459256
-0.009052 0.009194 0.241743
-0.035818 -0.263918 -0.398773
0.153966 -0.040227 -0.301327
0.034544 -0.116900 -0.145621
0.346747 -0.093657 0.008373
0.083251 0.503918 -0.189904
0.325919 0.353900 0.004764
-0.335995 -0.165877 -0.345407
0.435651 0.114233 0.303090
0.019847 -0.145168 0.182188
-0.385961 -0.197572 -0.281005
-0.149972 0.074961 -0.342741
0.082652 0.496924 -0.164642
-0.026353 0.010027 0.222003
0.088079 -0.133851 0.254404
0.420600 -0.042986 0.129084
-0.489603 -0.182947 -0.287488
0.127210 -0.087655 0.310219
0.110922 0.466667 0.155926
0.099058 0.174322 -0.459159
0.280920 -0.114772 -0.030410
0.071512 0.331023 0.277847
0.048315 0.367653 0.212452
-0.013687 -0.255555 -0.428888
-0.094658 -0.002379 0.015548
0.125610 -0.063436 -0.282501
0.208084 0.375397 0.282745
-0.087071 -0.146284 -0.228829
-0.238093 -0.220966 -0.161261
0.349662 -0.116135 0.063808
-0.095101 -0.035915 -0.089767
-0.251155 -0.356009 -0.106570
-0.243948 -0.271316 0.019649
-0.037683 0.327634 -0.213167
0.228820 -0.190734 0.068842
0.037022 -0.064409 0.277191
0.374231 0.001082 -0.153486
0.265861 0.273771 -0.260229
-0.340181 -0.365939 0.025857
-0.043862 -0.081092 0.147917
0.105387 -0.026519 -0.507437
-0.420229 -0.091960 -0.208442
-0.081842 0.224192 -0.052578
-0.281861 -0.129626 -0.253393
0.232466 0.104660 -0.366122
0.092767 0.470763 -0.269053
0.336537 0.024284 -0.171989
0.510274 0.271004 0.128577
0.158860 0.101372 0.372539
0.430000 0.164229 0.412853
0.088542 0.294592 -0.363506
-0.474535 -0.174995 -0.221052
0.058903 0.514441 0.038991
-0.252872 -0.253688 -0.167084
0.399806 0.124125 0.431019
-0.034868 0.280036 -0.086187
-0.444576 -0.084470 -0.253529
0.370259 -0.091062 0.046602
0.135289 0.495487 -0.159247
0.463753 0.256685 -0.158666
0.456192 0.166308 0.240676
0.146513 -0.066904 -0.478862
0.015934 -0.106684 -0.218709
-0.221325 -0.292337 -0.018107
0.409854 0.312033 0.260454
0.390186 0.235305 0.408262
-0.269963 -0.088297 -0.279269
0.360080 -0.090350 -0.016308
0.007413 -0.004722 -0.515870
-0.227879 -0.324370 -0.098990
0.158136 0.452461 0.144514
0.161636 0.338294 0.317860
0.303308 -0.151536 0.163464
-0.080551 -0.239484 -0.284764
-0.137238 -0.232113 -0.411703
0.347765 0.350819 0.186204
0.454104 0.124566 -0.084875
-0.085976 0.249206 -0.118502
-0.125728 -0.196506 -0.501459
0.092093 -0.163222 0.216045
-0.198600 -0.140085 -0.452461
0.470274 0.317439 -0.162030
-0.115501 -0.177871 -0.516784
0.151338 0.495611 -0.265805
-0.111886 -0.222648 -0.252817
0.019724 -0.037379 -0.545795
0.116993 -0.056255 -0.516975
0.230337 0.123439 0.374593
-0.071524 -0.056576 -0.019896
-0.549445 -0.176183 -0.190443
-0.020488 0.386501 0.054375
0.446388 0.156699 0.260956
-0.110944 -0.217561 -0.481538
-0.055735 -0.231918 -0.481398
-0.011776 0.326785 -0.189269
0.439332 0.140495 0.398720
0.459925 0.268943 -0.171537
0.447151 0.268467 0.262666
0.441885 0.318807 -0.104458
0.285600 0.128619 0.436549
0.492208 0.223252 0.054942
0.104999 0.201162 -0.446150
-0.063610 0.274112 -0.353286
-0.131915 0.219234 -0.315203
0.469172 0.192961 -0.058622
0.252904 -0.155149 -0.009918
0.240664 -0.173567 0.027360
-0.156130 0.130966 -0.263489
0.486388 0.172410 0.138902
0.166167 0.436282 0.249137
0.158546 0.162994 0.365361
-0.100152 0.264154 -0.009538
0.081039 -0.129463 -0.540224
0.135445 -0.197306 -0.001896
-0.137054 -0.109913 -0.221228
0.292262 -0.099673 -0.023518
-0.121855 0.247970 0.112369
-0.570494 -0.146477 -0.206359
0.094866 -0.175142 -0.040376
-0.550522 -0.132767 -0.211291
0.449859 -0.001706 0.045746
0.454578 0.137674 0.372392
0.453844 0.296222 0.029256
0.355655 0.381610 -0.223530
0.039703 -0.116878 0.240647
0.472630 0.092605 0.142786
-0.022569 -0.268675 -0.372567
0.172358 0.267005 -0.349518
-0.014165 -0.025545 -0.525711
0.509141 0.224096 0.127007
-0.118285 0.234940 0.004287
0.444696 0.302098 -0.027058
0.357745 0.214793 -0.129326
-0.344601 -0.091106 -0.234038
0.090960 0.346654 -0.231112
0.079768 0.451554 -0.136304
0.414075 0.084706 0.331374
0.048146 0.250162 0.302396
0.055076 -0.187451 -0.518715
-0.000942 0.365183 0.163577
0.491449 0.302580 -0.101621
-0.081255 -0.040633 -0.029231
0.212327 0.419517 0.251783
0.401153 -0.073836 0.038256
-0.100002 0.111058 0.042528
0.151436 0.459048 0.184328
0.285462 0.284804 0.385708
-0.108884 0.149225 0.060899
0.093548 0.511119 -0.272112
0.385979 0.322679 -0.030418
0.252011 0.032246 0.360505
-0.130457 0.077784 -0.392040
-0.208908 -0.196758 -0.357766
0.114300 -0.156759 -0.511480
-0.126514 0.233429 -0.255970
0.264723 0.378019 0.061645
0.347606 0.254079 -0.153617
-0.066136 -0.041367 0.101153
0.438119 0.313137 -0.092990
0.451765 0.155860 0.380006
0.346978 0.181583 0.449829
-0.130863 0.207087 -0.329824
-0.109229 -0.240956 -0.429511
0.148675 -0.090250 0.311667
0.298667 0.090565 0.390098
0.002361 -0.168465 -0.535461
0.188032 0.050318 -0.391935
0.185718 0.242303 -0.366160
0.068290 0.522784 -0.075345
-0.019607 0.066674 0.246396
0.131274 0.322112 -0.294335
0.289079 -0.157983 0.179949
-0.138734 0.064048 -0.098125
0.425517 0.001151 -0.060946
0.361580 0.342936 -0.102125
0.085468 0.484476 -0.264650
0.466738 0.140869 0.319384
0.183571 0.478614 -0.285887
-0.167623 -0.280033 -0.188380
-0.371780 -0.111859 -0.217466
-0.176507 -0.288591 -0.202961
0.308056 0.390603 -0.354911
0.305222 -0.144557 0.119890
0.262469 0.226248 0.414739
0.404042 0.334755 -0.133820
-0.109070 0.046012 0.013947
0.448264 0.228921 -0.091460
0.183596 0.415678 0.079189
0.082405 0.195867 0.336058
0.447643 0.012518 -0.018025
-0.042038 0.168912 0.241537
0.436001 -0.008113 -0.024667
0.498354 0.262531 0.009606
0.355851 0.304019 0.357064
0.126817 0.266395 -0.381831
-0.243084 -0.131047 -0.266642
0.054468 0.347306 -0.210444
-0.423176 -0.066492 -0.265079
0.109427 0.364142 0.275516
0.121474 0.504426 -0.174623
-0.078577 0.233384 -0.043604
0.279119 0.393306 0.138460
-0.036930 -0.039798 0.204161
0.453455 0.020519 -0.000945
-0.105421 0.161949 0.014639
0.264884 0.337474 0.297070
0.109289 0.511689 -0.187257
0.311505 0.139339 -0.155984
0.083110 0.508211 0.022850
0.159220 -0.170126 0.226392
-0.040730 -0.093854 -0.135019
0.104238 0.393134 0.232020
0.178574 0.033267 0.372362
-0.117957 0.071695 -0.015645
-0.159277 -0.271803 -0.097220
0.113207 -0.112763 -0.515120
0.351037 0.346297 0.214439
0.415561 0.304428 0.270197
0.145281 0.405977 -0.264903
-0.274352 -0.327593 0.021538
0.406001 0.072272 0.354072
0.156812 -0.069232 -0.222696
-0.014837 -0.105234 -0.065359
-0.453041 -0.181906 -0.232933
0.037897 -0.235259 -0.436642
0.486557 0.203081 -0.008144
-0.118536 0.137863 -0.049175
0.108862 0.384162 -0.226697
0.200194 -0.078301 -0.163303
0.296021 0.336423 -0.330207
0.291023 0.420579 -0.264009
0.146706 0.038514 -0.423040
0.151856 0.485821 -0.319327
-0.189084 -0.009318 -0.284496
-0.320163 -0.355247 -0.011271
-0.009072 0.262669 0.242759
-0.204030 -0.306662 -0.190376
0.008895 0.209242 -0.441451
0.017564 -0.180562 -0.308512
0.285719 -0.122862 0.024986
0.208768 -0.111991 -0.117175
-0.203695 -0.015276 -0.368542
0.316832 0.199878 -0.230577
0.296213 0.185367 0.447964
-0.276045 -0.190911 -0.336449
0.076072 0.184362 -0.454501
0.312267 0.339568 0.315374
0.265248 -0.122853 -0.047177
-0.114731 0.068643 0.008587
0.214331 -0.038899 0.343620
0.458498 0.158059 0.279419
-0.189956 0.023175 -0.352163
0.416737 0.079128 0.386335
0.126439 0.246396 -0.404628
0.122826 0.094010 -0.451516
-0.092995 -0.027149 -0.056584
0.004545 0.236849 -0.427039
0.345780 0.302968 -0.268845
-0.511696 -0.083756 -0.174054
0.494981 0.209501 0.071355
0.013783 -0.163815 0.115440
0.476016 0.080225 0.100593
0.313604 0.106724 0.443794
0.111941 0.024101 -0.431722
0.064694 0.370174 -0.081688
-0.023116 -0.118033 0.149655
0.426189 -0.008669 0.180006
-0.048562 -0.062841 0.169168
0.443922 0.307444 0.126502
0.192515 -0.170581 -0.042368
0.372653 -0.104116 0.124485
0.363067 0.064790 0.406375
-0.175809 -0.155752 -0.228396
0.115093 -0.128281 -0.519108
0.196916 0.306161 0.331728
-0.317915 -0.392885 0.010162
-0.207706 -0.155836 -0.444157
-0.109280 -0.157974 -0.228468
0.288048 -0.029786 -0.143005
0.428852 0.094685 0.270591
0.126035 0.457315 0.072988
-0.110432 0.163068 -0.042092
0.063279 0.128485 0.331952
0.500964 0.211830 0.133008
-0.189947 0.013976 -0.406497
0.058041 0.359155 -0.034819
-0.220331 -0.308879 -0.185374
-0.275161 -0.332194 -0.112301
0.097608 0.516978 -0.194090
0.483211 0.092007 0.069610
0.063119 0.343826 -0.247514
0.291930 0.358888 0.274343
0.352735 0.352279 0.084088
-0.048315 -0.190127 -0.520439
-0.085420 0.267530 -0.143183
-0.280087 -0.367113 -0.072535
0.206129 0.455803 -0.302953
0.301600 -0.150487 0.177688
-0.026407 0.133530 0.260197
-0.230330 -0.077842 -0.352216
0.140606 0.314835 -0.304523
-0.089577 -0.239984 -0.450916
0.139663 0.133469 -0.452592
0.366400 -0.064197 -0.084870
-0.002352 0.331322 -0.209125
-0.502630 -0.087631 -0.220260
0.320579 0.040507 0.339781
0.426110 0.231724 -0.126583
-0.078614 0.248194 0.173718
-0.159871 0.076674 -0.280486
-0.464991 -0.146995 -0.195851
0.475279 0.313817 -0.143719
0.197291 0.159139 -0.408464
-0.359046 -0.198618 -0.300451
0.079859 0.002075 0.338530
0.092043 -0.082642 -0.256872
0.187592 -0.207395 0.059719
0.420084 0.062105 -0.106642
-0.097793 0.234878 0.154902
-0.216685 -0.188063 -0.319980
-0.151139 0.099813 -0.327227
0.299217 0.215698 -0.247933
0.110312 0.270011 -0.387147
0.501519 0.201856 0.040135
0.255698 0.197422 -0.301369
0.108647 -0.145403 0.249386
-0.489137 -0.061466 -0.191720
-0.297782 -0.371685 -0.046054
-0.340565 -0.084321 -0.301863
0.319429 0.083287 0.425134
-0.117344 0.154895 -0.066314
0.177375 0.481408 -0.262506
0.443162 0.300466 -0.040052
-0.175753 -0.267514 -0.138349
0.257596 0.365986 -0.304131
0.414132 0.301636 0.023901
0.299658 0.109029 -0.169143
-0.600203 -0.146972 -0.160277
0.024714 0.349837 -0.022647
0.412034 -0.006353 -0.088145
0.425371 0.311589 0.210805
-0.030250 0.273158 -0.065878
0.214308 0.059362 -0.379155
0.048679 -0.181567 0.053405
0.080527 0.369881 0.251337
0.480300 0.236039 0.004098
0.262680 -0.174667 0.163476
-0.063869 0.096821 0.147738
0.142270 0.377946 0.285514
0.300267 -0.026253 -0.150103
-0.140299 -0.233790 -0.388147
-0.115641 -0.036266 -0.502127
0.272026 0.051396 -0.200626
0.139381 0.444797 0.008831
-0.225305 -0.212558 -0.203432
-0.100584 0.209770 -0.089830
0.308309 0.204237 -0.240646
-0.226665 -0.071223 -0.369430
0.481453 0.222169 0.009221
0.314761 0.360221 -0.350222
-0.140025 0.161902 -0.335417
-0.073295 -0.040704 0.017491
-0.076707 0.165994 0.200635
-0.112046 0.258338 -0.197015
-0.205807 -0.134708 -0.435791
-0.198050 -0.018895 -0.292060
-0.440162 -0.181496 -0.233688
0.326169 0.198102 -0.181487
0.159706 0.297073 0.335191
-0.488693 -0.086327 -0.228538
0.485300 0.195918 0.142943
0.349386 -0.120109 0.077303
0.139394 0.390067 0.275691
0.178736 -0.074075 -0.189149
0.180116 0.429921 -0.042780
0.036272 0.196069 0.301975
0.341640 0.127560 -0.145687
0.478689 0.073972 0.008421
-0.175929 -0.289662 -0.174631
-0.168606 0.024718 -0.274572
0.012478 0.179338 0.287887
0.104325 0.449348 0.168122
0.419241 0.296239 0.097956
0.314980 0.408592 -0.285318
0.153899 0.270056 -0.361588
0.448502 0.004752 0.012256
0.255667 0.385277 0.039068
0.098653 -0.120669 -0.531474
-0.297574 -0.194378 -0.326886
-0.539754 -0.097173 -0.198235
0.261308 0.399333 0.165661
0.359679 0.383107 -0.269180
0.312867 0.109865 -0.159855
0.277313 0.044997 0.356918
0.212548 0.407165 -0.270622
0.473178 0.200541 -0.048886
-0.070890 0.311102 -0.224631
0.049218 0.531608 -0.063332
0.129430 0.226516 0.345995
0.438741 -0.015019 0.017307
0.407973 0.114055 0.422507
0.254421 0.188828 0.386621
0.166663 0.487316 -0.288583
-0.401603 -0.100443 -0.280375
0.083262 0.338083 0.284953
-0.101922 0.038336 0.040411
0.513188 0.246094 0.137371
0.357310 0.348446 -0.127752
0.291808 0.011402 -0.172092
-0.146522 0.174111 -0.264895
0.140132 0.496346 -0.194154
-0.153253 0.144503 -0.280325
0.438487 0.295478 0.211805
-0.059508 -0.059337 0.101936
-0.195766 -0.154671 -0.268823
0.151919 0.455890 0.130597
0.121028 -0.075541 -0.379367
0.007171 -0.151826 0.033469
0.140084 0.436686 -0.302744
0.430731 0.301485 0.222234
0.129353 0.342265 -0.233174
0.193403 0.183985 -0.405546
-0.127331 0.269488 0.049424
0.093486 -0.162655 -0.409075
-0.377758 -0.142744 -0.333474
0.071932 0.375410 -0.036606
0.426283 0.093829 0.325995
-0.157579 0.006070 -0.238234
-0.245700 -0.107806 -0.355988
-0.531835 -0.176098 -0.202266
0.334020 0.168642 -0.137561
0.342984 0.363804 0.094017
0.071716 0.415717 -0.146190
-0.154693 -0.235728 -0.287203
-0.169472 -0.067922 -0.461338
0.395439 -0.073540 0.111018
0.279314 0.376997 -0.335522
-0.137417 -0.184067 -0.183564
-0.122958 -0.063596 -0.497139
0.283686 0.118662 -0.249017
0.464464 0.037432 0.087134
0.406288 0.321228 0.104512
-0.198406 0.009968 -0.343186
0.400164 -0.054270 -0.038692
0.141286 -0.207740 0.040431
0.469477 0.217226 0.288670
0.322343 0.353816 0.073712
-0.181536 -0.011063 -0.434389
0.471262 0.205584 0.300788
0.321078 0.182128 -0.180486
0.022870 0.114319 -0.478062
-0.273011 -0.120715 -0.255782
0.485471 0.254189 -0.086662
0.070210 -0.183496 0.009419
0.430127 -0.010443 0.161469
0.330988 -0.081391 -0.065989
0.073820 0.474035 -0.115498
0.141603 -0.074585 -0.234347
0.426283 -0.024968 0.152297
0.309784 -0.042160 -0.135341
0.109487 0.514877 -0.243985
0.399174 0.067937 0.387853
-0.366677 -0.096790 -0.223176
0.281076 0.150371 -0.265974
0.160697 0.454786 0.166612
0.386837 0.164604 0.440195
-0.400284 -0.136318 -0.313593
0.145531 0.323346 -0.260002
-0.143818 0.072391 -0.377710
0.147784 0.010558 -0.398170
0.347737 0.297061 0.370612
-0.106645 0.194483 -0.381860
0.474649 0.157806 0.184896
0.415617 0.315377 -0.104881
-0.110204 -0.250440 -0.338186
0.011949 0.318201 -0.322217
0.094783 -0.008360 -0.472743
-0.135830 -0.238104 -0.349883
0.375852 -0.068560 0.221948
0.315879 -0.112450 0.232019
0.157497 0.220041 -0.411286
-0.328520 -0.073249 -0.274652
0.318637 0.179327 -0.166605
0.253578 0.341643 -0.260962
0.433182 0.059419 -0.087544
-0.029467 -0.000360 -0.515289
0.253035 0.058643 -0.249082
0.393284 -0.046354 -0.074733
-0.268564 -0.293303 -0.142247
-0.186031 -0.302101 -0.158923
-0.155495 0.095477 -0.307657
-0.359692 -0.067838 -0.275487
-0.169518 0.035290 -0.287464
-0.260820 -0.316587 0.011259
-0.205470 -0.049354 -0.401444
-0.127518 -0.241645 -0.308087
0.353432 0.378265 -0.154576
0.097071 0.470085 -0.005787
0.074080 0.392671 -0.034724
-0.282859 -0.182854 -0.289724
0.220582 -0.005831 -0.242577
0.438884 -0.003170 0.150349
0.491514 0.184012 0.104936
0.137976 -0.132508 -0.484651
0.025206 0.439886 0.008469
-0.121361 0.240746 -0.221643
0.013012 0.081141 -0.471470
0.285312 0.370371 0.093099
0.109477 0.357742 -0.228536
-0.144153 0.087976 -0.117493
0.448129 0.176250 0.382047
0.030922 -0.115556 -0.121921
0.489106 0.148996 0.142916
0.273408 -0.081095 0.297964
-0.588898 -0.166562 -0.154295
0.091531 -0.112581 -0.158554
-0.110634 0.278895 0.011652
0.214476 0.070153 0.373212
-0.030938 0.249787 0.229742
-0.109238 0.127655 0.004314
0.036526 -0.120358 -0.105850
0.228098 0.387283 0.140912
0.057515 -0.075740 0.291471
0.026434 -0.173460 0.108173
0.416393 0.296206 0.288620
0.206243 0.405263 0.197418
0.041226 -0.217728 -0.403926
-0.235075 -0.217734 -0.135928
0.270322 0.090270 -0.241877
-0.100178 0.181629 -0.017778
-0.008270 0.346081 -0.004428
0.058922 0.524767 -0.034293
0.125894 -0.183104 0.196718
0.236432 -0.085782 0.305579
-0.217936 -0.294919 -0.100911
-0.011570 0.390274 0.043502
-0.056037 0.218448 -0.418040
0.282931 0.371224 0.043912
0.009575 0.012010 0.274323
-0.196049 -0.202854 -0.282255
0.086840 -0.186342 0.164949
0.248339 0.378627 0.264963
0.224466 0.058770 -0.356442
0.295117 -0.076879 -0.066910
-0.092286 -0.201324 -0.255454
0.392080 0.346542 -0.316974
0.244446 0.078744 -0.331233
0.063058 0.435322 0.118952
-0.133912 0.213913 -0.223792
0.031448 0.479289 -0.070631
0.334150 -0.114917 0.197090
0.403312 0.278844 0.343524
0.070676 0.035872 -0.450922
0.033101 -0.101997 0.249765
0.049541 0.307767 -0.353858
-0.109145 0.145972 -0.397736
0.124454 0.113522 -0.454929
-0.110057 0.135120 -0.009593
0.469975 0.180700 0.327373
0.328050 -0.122251 0.052253
-0.178613 -0.268702 -0.009606
-0.017152 -0.137739 0.066361
-0.072630 0.277744 -0.336652
-0.060893 0.309681 -0.005002
0.079444 0.455762 -0.165176
0.130351 0.066731 -0.442745
0.001816 0.016339 0.262504
-0.377780 -0.067733 -0.282251
0.109364 0.318812 -0.327569
-0.287645 -0.348149 0.008189
-0.147516 0.172522 -0.292799
-0.130072 0.191521 -0.144914
-0.083900 -0.181575 -0.249368
-0.164331 0.048681 -0.404844
-0.029548 0.298528 -0.133028
-0.296042 -0.187364 -0.292180
-0.133221 0.079292 -0.379725
0.110683 0.044418 0.358341
0.088806 0.067167 0.355052
0.348186 0.352820 0.249320
0.312129 0.248764 -0.244971
0.093959 -0.040064 -0.536194
0.357443 0.023618 0.308669
0.144655 -0.057669 -0.424719
-0.249782 -0.267687 -0.008256
0.165556 0.173566 -0.428139
0.389113 0.074890 0.303194
0.024945 0.447969 0.027100
0.367239 0.181982 0.444778
0.356574 0.123894 0.450544
-0.118112 0.187369 -0.106725
0.393144 0.106875 -0.136183
-0.091050 0.284373 -0.192196
-0.088018 0.041638 -0.486183
0.363066 0.324225 -0.325859
-0.493498 -0.160178 -0.197543
-0.094471 0.277277 0.126748
-0.150085 0.157692 -0.293252
0.074905 -0.169486 -0.402420
-0.187646 -0.277547 -0.077250
0.208881 0.125888 -0.402228
0.030547 0.001877 -0.506178
-0.183484 0.029114 -0.325784
0.113386 0.501109 -0.298757
-0.150834 -0.252059 -0.102072
-0.182962 -0.251353 -0.028014
0.233236 0.392901 0.176506
0.246289 -0.187273 0.145839
0.461596 0.155645 0.354823
-0.032931 0.292875 -0.096530
0.081204 -0.199156 0.065851
0.330442 0.321619 -0.332347
-0.321377 -0.314339 0.057460
-0.008388 0.140579 -0.467979
-0.025098 -0.186160 -0.284997
0.463092 0.057237 -0.018482
-0.172647 -0.278048 -0.060722
-0.095567 0.252285 -0.343842
0.092057 0.245375 0.320889
0.107651 0.464719 0.032742
-0.111106 -0.117554 -0.216631
-0.293170 -0.331588 0.055126
0.171089 0.433730 -0.032289
0.036131 0.357039 -0.183446
0.014962 0.343042 -0.150790
0.387473 0.315528 0.307604
0.289397 0.394638 -0.081545
-0.506181 -0.109706 -0.228670
-0.058758 0.316993 -0.239528
0.273943 0.190665 -0.268184
0.401437 0.317756 -0.092967
0.463968 0.289345 -0.182124
-0.558206 -0.191235 -0.224212
0.353692 0.278909 -0.205414
-0.143569 -0.226592 -0.422649
-0.274544 -0.381012 -0.059505
-0.125824 0.158196 -0.371137
-0.111405 -0.247256 -0.395235
0.394623 0.241964 -0.145987
-0.098616 -0.005112 -0.017116
0.417488 0.266876 -0.179156
-0.600812 -0.153651 -0.175834
0.093147 -0.089638 -0.292924
-0.406656 -0.080462 -0.218195
0.011744 -0.132559 -0.542750
-0.200731 -0.002728 -0.377363
-0.128793 0.142149 -0.370451
0.450019 0.040654 0.147949
-0.190307 -0.056901 -0.437732
0.179878 0.325573 0.327639
0.170548 0.130701 -0.434779
0.096427 0.362331 0.270439
-0.238772 -0.247205 -0.201726
0.021031 0.482129 0.022997
-0.070244 0.194269 -0.409942
0.309749 0.366415 -0.042164
-0.003743 -0.050439 0.246334
0.212490 0.359118 0.286681
-0.369243 -0.120428 -0.302578
-0.123963 0.174801 -0.108437
-0.206828 -0.292791 -0.125296
0.110963 -0.069164 -0.529541
-0.088017 0.265500 -0.339019
0.231429 0.403416 -0.025359
-0.161453 -0.186516 -0.487792
0.065948 0.465021 0.099789
0.082972 0.292340 0.304001
-0.103771 -0.003524 -0.043820
0.052980 0.343710 -0.258751
-0.053351 -0.091463 0.032625
0.040895 -0.050772 0.291911
0.299335 -0.089231 -0.019052
0.095742 -0.078538 -0.272359
0.395909 0.311923 0.036792
-0.017441 0.309336 -0.099355
0.258864 -0.096587 0.290553
-0.271636 -0.098619 -0.333127
0.496444 0.197947 0.012954
-0.089324 -0.186235 -0.515985
-0.073510 -0.221559 -0.491759
0.450500 0.138982 0.249154
0.041312 0.343504 -0.205862
0.168908 -0.062316 -0.217566
-0.518867 -0.064864 -0.199385
0.066111 0.234597 -0.431621
-0.042101 -0.089241 0.136402
0.208902 -0.026066 -0.231638
-0.412419 -0.194059 -0.261748
0.343783 0.363115 0.147472
-0.228715 -0.225288 -0.092321
0.035158 -0.172881 0.045078
0.086550 -0.169388 0.202319
0.406829 0.301504 0.075454
-0.479333 -0.095205 -0.237423
0.084139 -0.146832 -0.342083
-0.277477 -0.275723 -0.064572
0.204238 -0.165281 0.235322
0.135764 0.471551 0.117533
0.162085 -0.127100 0.277925
-0.139836 -0.240875 -0.273966
0.491189 0.267017 -0.094301
-0.263368 -0.293775 0.071651
-0.176757 -0.246490 -0.270572
0.023601 -0.112259 0.228690
0.050882 -0.115992 -0.194404
0.328559 0.209981 -0.210139
0.070248 -0.033828 0.321615
-0.061203 0.132151 0.218629
0.495681 0.142711 0.126528
-0.079211 -0.259004 -0.391449
0.490127 0.292678 0.067810
-0.097451 0.226569 -0.106482
-0.529399 -0.092977 -0.204623
-0.021018 -0.095354 -0.084020
0.417290 0.251829 0.365696
0.045288 -0.002438 -0.516732
0.461586 0.261962 0.209679
0.084799 -0.091360 0.294835
0.054959 0.232371 0.309995
0.398879 0.337764 -0.261151
0.455353 -0.004186 0.083934
-0.067149 0.128494 -0.440964
-0.208701 -0.137731 -0.273863
0.400801 0.307193 0.299103
0.390996 0.160713 -0.122097
-0.143774 0.107532 -0.112636
0.341404 -0.127731 0.104210
0.328483 0.205481 -0.141990
0.062486 -0.148937 -0.069168
0.456518 0.207334 0.239314
0.409338 -0.060891 0.007656
-0.073261 0.176342 -0.421900
-0.203517 -0.203639 -0.123055
0.205921 -0.081382 0.316839
0.034892 -0.181045 -0.350873
0.030920 0.411885 0.139319
0.285446 0.383138 -0.071518
0.083662 0.337492 -0.271288
0.492101 0.120652 0.125811
0.166987 0.409934 0.271705
0.494705 0.214939 0.096682
0.463056 0.315618 -0.084857
0.435460 0.212215 -0.097942
-0.004775 -0.129150 -0.017747
0.372842 0.329481 0.213147
0.387224 0.114446 0.436324
-0.429201 -0.157403 -0.322182
-0.230583 -0.236363 -0.065015
-0.153495 0.141937 -0.173807
0.420608 0.339253 -0.200936
0.321318 -0.109972 0.030057
-0.298314 -0.395466 -0.018363
0.231545 0.084516 0.374921
-0.127027 0.233555 0.013674
0.022033 -0.038682 0.274080
0.316131 0.363196 0.197380
0.288844 -0.152615 0.106754
-0.307006 -0.097850 -0.325079
0.073394 0.457086 -0.112435
0.151376 -0.161827 0.237431
0.265012 0.101111 0.373626
0.115834 -0.009748 -0.400711
0.323853 -0.051513 -0.126185
0.070399 -0.102162 -0.548805
-0.304602 -0.151434 -0.247984
-0.121965 0.257967 0.102839
-0.156138 0.139977 -0.200757
0.286009 0.186842 -0.255719
-0.220386 -0.318247 -0.171371
0.186514 0.161185 -0.417381
0.159522 0.429864 0.051467
-0.506656 -0.059576 -0.202024
0.006677 0.002256 0.264197
0.214120 0.400346 0.084867
-0.211782 -0.213750 -0.103873
-0.027798 -0.153698 -0.248811
-0.156875 -0.088519 -0.468271
-0.038755 0.042933 0.196431
0.016910 0.297848 0.243462
0.097723 0.494223 -0.051449
0.151974 -0.019658 -0.353821
-0.201169 -0.195249 -0.388778
-0.433477 -0.196552 -0.282641
0.492742 0.155757 -0.025232
-0.291248 -0.141649 -0.250930
0.053791 0.499542 0.060167
-0.164313 -0.041179 -0.467230
0.317315 0.392737 -0.159224
-0.103273 -0.048241 -0.113852
-0.206490 -0.032941 -0.304083
-0.147471 -0.238038 -0.127079
-0.098570 -0.110566 -0.212915
-0.166923 -0.021200 -0.454001
-0.293536 -0.136570 -0.349195
0.140551 0.298890 -0.340903
0.096997 -0.104898 -0.307892
0.036231 0.438531 0.070830
-0.348952 -0.183101 -0.257056
0.475670 0.170488 0.171889
0.413923 -0.055260 0.132857
0.363020 -0.091395 0.021579
0.334358 0.249902 0.423014
0.377069 0.192404 0.439787
-0.022946 -0.106466 -0.181768
0.081539 0.078932 0.353736
-0.158319 0.086631 -0.290479
0.037320 0.367460 -0.157020
0.332169 -0.059667 0.277038
-0.104775 0.214533 -0.373222
0.448583 0.304582 0.162984
-0.396401 -0.057621 -0.253977
0.072728 0.397700 0.212530
0.032425 0.226324 0.291972
0.005515 -0.251710 -0.360780
0.173704 0.052160 -0.412301
0.239259 0.235848 0.357879
0.389955 0.324787 0.275833
0.148608 0.495877 -0.247778
-0.206347 -0.318889 -0.169113
-0.145334 -0.222974 -0.136687
-0.103358 0.087995 0.040560
0.297934 0.380217 0.223245
0.467162 0.235583 -0.088566
0.504692 0.186665 0.040100
0.238980 0.113059 -0.350926
0.417316 -0.048510 0.070411
0.217258 0.403397 0.047616
0.439346 0.025435 0.167702
0.113177 -0.051532 -0.332836
0.464808 0.108639 -0.064582
0.237533 -0.175264 0.207346
0.479816 0.242778 -0.050096
-0.068909 0.085455 -0.438788
0.154815 -0.129874 -0.445032
0.219498 -0.199649 0.152473
0.045271 0.505225 0.045467
0.139189 -0.092992 -0.493624
-0.034854 0.311353 -0.322727
0.221131 0.234305 -0.328846
0.400631 0.012602 -0.120171
-0.053883 -0.096588 -0.521009
0.166754 0.068047 -0.427608
0.327728 0.389492 -0.125114
0.201676 0.418724 0.264267
0.289056 0.019203 0.343167
0.338009 0.344151 0.067751
-0.072580 0.237991 -0.068502
0.240450 0.435279 -0.186579
0.382409 0.238221 -0.131580
-0.105329 0.023888 0.009501
-0.091115 0.096566 0.072715
0.108234 -0.190654 -0.013527
0.384663 0.062230 0.371967
0.413908 0.309500 -0.088303
-0.117590 0.065219 -0.038889
0.104915 -0.095760 -0.222205
-0.154222 0.125710 -0.172484
0.349966 0.325837 -0.332769
0.395138 0.143714 0.436872
0.207977 0.455953 -0.123391
-0.554281 -0.192486 -0.244472
-0.557254 -0.090290 -0.162878
0.203902 0.180247 -0.396188
0.182281 0.276686 0.340862
-0.036616 -0.242849 -0.465635
0.180643 0.475689 -0.200682
0.243750 0.234930 -0.276873
-0.079482 0.231796 0.182601
-0.429003 -0.171340 -0.223234
0.315447 0.360464 -0.012644
0.306746 -0.056510 0.301592
-0.050529 -0.182575 -0.267248
0.155663 0.384253 0.289588
0.053815 0.524728 -0.000468
-0.159640 -0.175871 -0.173702
0.024485 0.321674 -0.326024
0.023695 0.011768 0.295728
0.035852 -0.170747 0.151336
0.212540 -0.069347 0.324449
0.258667 0.286540 -0.259061
0.174570 -0.037669 0.346880
-0.160370 -0.270715 -0.052822
-0.066802 0.290593 -0.019689
0.086931 0.361843 -0.220221
0.066440 0.000739 0.331362
-0.279847 -0.290017 0.026178
0.063861 0.015614 -0.452070
-0.254590 -0.311007 0.020867
0.153013 0.481814 -0.118044
-0.421799 -0.053276 -0.237593
-0.121228 0.232032 -0.162741
0.004955 0.335233 -0.256345
0.249713 0.291454 0.333611
-0.159922 -0.223872 -0.373266
-0.163564 0.052662 -0.233880
-0.335728 -0.176779 -0.254299
0.150104 0.462227 0.146600
0.353765 0.044703 0.321699
0.474481 0.173948 0.312630
-0.181692 -0.227276 -0.074762
0.166062 -0.186932 0.199891
-0.196225 -0.223996 -0.078273
0.162137 -0.112791 -0.442218
0.108539 0.477976 -0.062819
0.008428 0.256361 0.262732
0.081994 -0.096116 -0.231664
-0.114266 0.150726 -0.046236
0.382554 -0.082361 0.013846
0.481750 0.080652 0.057920
0.321167 0.401961 -0.192575
0.294128 0.230771 0.432499
-0.080570 0.036783 0.128521
0.018722 0.314557 -0.056765
-0.235736 -0.084391 -0.321793
0.463519 0.119026 -0.072605
0.063847 0.403456 0.196800
0.211369 0.243969 -0.331621
0.193899 0.402066 0.156331
0.306592 0.062487 -0.174274
-0.298309 -0.348528 0.030942
0.143531 0.023541 -0.412388
-0.030558 0.278348 -0.374424
-0.143207 0.119493 -0.345142
-0.122724 0.278195 0.057666
0.121799 0.443545 0.199609
-0.007889 0.015185 -0.489122
-0.152974 0.009049 -0.208373
-0.193956 -0.315681 -0.154028
0.106045 -0.169770 0.213192
-0.058744 0.034760 -0.495736
0.027527 0.537842 -0.018846
0.461892 0.189870 -0.072297
-0.052056 0.270328 -0.040624
-0.056850 0.244803 -0.395597
0.464741 0.197273 0.333896
0.262292 0.128159 0.375948
-0.088853 0.218470 -0.086012
0.491961 0.158723 0.134318
0.357862 -0.089458 -0.029263
-0.017767 -0.114781 -0.530906
-0.119868 0.075014 -0.415137
-0.517808 -0.068792 -0.178440
0.309105 0.222290 0.439266
-0.064355 0.343998 0.047526
0.370450 0.243917 0.412522
0.018664 0.251071 -0.417854
0.336718 -0.011514 -0.160978
0.021446 -0.140475 -0.040081
0.213201 -0.184361 0.202528
0.401480 0.354786 -0.237464
0.290133 -0.101601 0.270692
0.061515 -0.116906 -0.162592
-0.130318 -0.218811 -0.185318
-0.070854 -0.013583 0.145346
0.214358 0.402040 0.067856
-0.049838 -0.073761 -0.069818
0.289576 0.412729 -0.114454
-0.324972 -0.351368 0.000626
0.330312 0.303274 -0.279678
0.383843 -0.057854 0.221893
0.229893 0.194263 -0.352818
0.118450 -0.021655 -0.455852
0.083413 0.434699 -0.195788
-0.188959 -0.120966 -0.446694
-0.191152 0.019598 -0.335913
0.159638 0.009213 -0.388983
0.248911 -0.124635 -0.065731
-0.215746 -0.071903 -0.293879
-0.602937 -0.194673 -0.206157
-0.037539 -0.101611 0.130853
0.460136 0.106014 0.225667
0.432504 0.092326 0.337347
0.176413 0.420825 0.266897
0.398318 0.083126 0.326874
-0.068276 0.243141 0.185452
0.177832 0.307286 -0.256002
0.010088 -0.134838 0.183055
0.002965 -0.105906 -0.111540
0.014021 0.096424 0.292308
0.402739 0.318955 -0.206603
0.375614 0.376414 -0.280008
0.509733 0.272883 0.038053
-0.006928 0.023765 0.253867
-0.241460 -0.324018 -0.156934
-0.094624 -0.001902 0.030502
0.048105 0.207866 0.310332
-0.150275 0.112308 -0.325271
-0.500879 -0.163677 -0.302244
-0.017773 0.286894 -0.060127
-0.439651 -0.164506 -0.317813
0.053760 -0.103821 -0.222150
0.119973 -0.212026 0.091968
0.277415 0.058992 -0.212786
-0.202084 -0.013705 -0.305812
0.135634 -0.150753 -0.088599
0.227100 0.012099 -0.261840
0.020287 0.163755 -0.472598
0.123379 0.280462 -0.370063
0.038892 0.489724 0.045000
0.240708 0.132799 0.373151
-0.043652 -0.074915 0.167975
0.069980 -0.212536 -0.448008
0.409733 -0.061640 0.074945
0.076978 0.515364 -0.047342
-0.002641 0.248259 0.252405
0.370608 0.372389 -0.184826
-0.147961 -0.221567 -0.434359
0.317251 0.377605 -0.104202
0.335721 0.241195 -0.205402
0.500016 0.288052 -0.106628
0.177566 0.144312 0.372341
0.190589 0.355657 -0.218087
0.481244 0.113602 -0.029265
0.029775 0.436773 -0.014155
-0.160558 -0.274437 -0.068787
-0.202173 -0.184569 -0.206846
-0.285929 -0.324762 -0.091817
0.497993 0.165522 -0.008614
0.051160 0.523722 -0.089880
-0.285214 -0.303899 0.079361
-0.466668 -0.057222 -0.235925
0.285253 0.294800 -0.261809
-0.305893 -0.320584 -0.020122
0.012091 0.408725 0.033339
0.474080 0.179260 0.190475
-0.104241 0.310973 0.075672
0.207282 -0.177705 -0.016354
-0.009744 -0.145078 0.106298
-0.507183 -0.167672 -0.200778
0.074305 -0.174824 0.182017
-0.026909 -0.016768 -0.522199
0.382629 0.327665 -0.076688
0.239939 0.387587 -0.274156
0.260109 0.393292 -0.052515
0.199719 0.023685 -0.351290
0.180045 0.432119 -0.298325
0.057269 -0.044652 0.307463
-0.142259 0.198425 -0.286589
0.147126 0.462585 0.166572
0.253559 0.422223 -0.146835
0.067439 -0.167761 -0.391037
-0.070966 0.102157 0.133934
0.424594 0.225230 0.385658
0.194975 0.392530 -0.251789
0.240175 -0.177931 0.046911
-0.129953 0.106153 -0.377271
-0.032746 -0.020536 0.216063
0.001730 -0.156081 0.097072
0.155325 0.192884 -0.426035
-0.162829 0.119505 -0.224364
-0.469634 -0.085399 -0.239931
-0.069021 -0.164553 -0.244139
0.069691 0.406046 -0.046716
0.160309 -0.083944 -0.459365
0.282823 -0.134071 0.053742
-0.133076 -0.038318 -0.170551
-0.464207 -0.160317 -0.313030
-0.109471 0.213613 0.144659
-0.151433 -0.229485 -0.115041
-0.125061 -0.035226 -0.131763
0.161224 0.307965 -0.286830
-0.235634 -0.098946 -0.361641
-0.245947 -0.350964 -0.075403
0.123884 -0.069556 -0.500481
0.299812 0.377031 -0.083890
0.037733 -0.078984 -0.557625
0.252676 0.441833 -0.281885
-0.218404 -0.072422 -0.389150
0.337628 -0.040921 0.285841
-0.004899 -0.110122 -0.149497
0.195138 0.410529 0.073942
0.463942 0.183983 0.343661
0.356326 0.335898 0.014698
0.079339 -0.104656 0.281985
0.340616 0.312722 -0.318488
-0.478943 -0.075185 -0.232013
0.168733 -0.199093 0.176458
-0.261689 -0.122946 -0.358226
0.366951 0.336840 -0.071114
-0.088063 0.096803 -0.426405
-0.248203 -0.108085 -0.265348
0.255890 -0.051743 0.324938
-0.048959 -0.267744 -0.363483
0.030864 0.341441 -0.216217
0.384969 0.370629 -0.271349
0.328544 0.349261 0.032486
0.356515 0.344250 -0.084204
0.365623 0.081287 -0.153896
0.182006 -0.047561 -0.225421
0.216325 0.255367 -0.299237
0.130161 0.050786 -0.436455
0.177174 0.216694 0.361495
-0.292385 -0.103963 -0.334967
0.045821 0.174510 0.316572
0.291239 0.413431 -0.185522
-0.151848 0.016440 -0.150752
0.028427 0.380450 -0.007265
0.348853 0.072890 0.341252
0.360563 0.387858 -0.331923
0.017585 0.095705 -0.475352
-0.097404 0.210811 -0.019670
0.145603 -0.042050 -0.313319
-0.179802 0.040127 -0.337682
0.256907 0.062538 -0.261131
0.120260 -0.027416 -0.375043
0.287834 0.417643 -0.212787
-0.118564 0.158202 0.074707
0.259580 -0.146213 0.240782
-0.022112 -0.236928 -0.477074
0.056738 0.329581 -0.314344
-0.094011 -0.161508 -0.233535
0.177824 0.175318 -0.419358
-0.083906 0.262430 -0.021063
-0.535942 -0.154701 -0.266641
-0.019515 0.390786 0.099135
0.353934 0.339724 -0.013196
0.100566 -0.095080 0.298025
0.020656 0.472846 -0.043396
-0.015891 0.314230 -0.143732
0.461378 0.294507 0.172966
-0.124124 0.118639 -0.064342
-0.126404 -0.242559 -0.325001
0.062261 0.499237 -0.104737
-0.313640 -0.110554 -0.332233
0.170384 -0.112904 0.292039
0.151462 0.472414 -0.321267
0.080148 0.276620 -0.394152
0.407999 0.228094 0.400164
0.136029 -0.075624 0.319937
-0.045143 0.136481 -0.454747
0.416785 0.309617 0.106855
-0.005556 0.397933 0.055011
0.240814 0.305383 -0.253031
-0.375071 -0.189330 -0.319411
-0.261596 -0.320632 -0.007505
0.167122 0.401891 -0.263308
0.202635 0.426865 0.213594
-0.147690 -0.199554 -0.482877
-0.516478 -0.187960 -0.245629
-0.309683 -0.379265 -0.027646
-0.045591 0.309728 -0.311091
-0.243603 -0.171777 -0.292797
-0.425358 -0.074029 -0.214714
-0.273402 -0.268026 -0.096889
0.230491 0.412875 0.234980
-0.594583 -0.154966 -0.146661
0.288186 0.353420 0.285642
0.234057 0.292006 -0.253949
-0.060552 0.353177 0.091124
0.130844 -0.061789 -0.397145
-0.065618 -0.224380 -0.280697
0.113877 -0.072515 -0.267487
0.050961 0.192362 -0.454872
0.103770 0.091371 -0.460053
0.310524 0.225496 -0.241689
0.289197 0.351979 -0.337877
0.235332 0.337933 0.294291
0.142783 0.499531 -0.297765
0.190111 0.458032 -0.102795
0.112133 -0.024437 -0.412625
-0.134647 0.234735 0.078842
0.206939 0.254948 0.351526
0.017811 0.040358 0.295357
-0.156521 -0.259505 -0.069125
0.089365 0.049119 0.347527
-0.151156 -0.013309 -0.226449
-0.127312 0.145716 -0.095615
0.174749 0.378333 0.292947
0.345694 -0.124268 0.088769
0.016437 -0.222348 -0.493076
0.448101 0.001610 0.129616
0.304035 0.416792 -0.322627
-0.445676 -0.146164 -0.200595
0.481276 0.149970 0.159148
-0.077844 0.295094 -0.182097
0.415861 -0.059772 0.027517
-0.083840 -0.025045 0.041487
0.058191 -0.117464 -0.177019
0.135438 0.305442 0.322975
-0.245372 -0.337507 -0.074038
-0.188128 -0.291326 -0.210311
0.143187 0.261312 -0.378884
-0.210650 -0.285816 -0.082070
0.297846 0.241900 0.426728
0.013511 -0.027301 0.267337
-0.142630 -0.059606 -0.212256
-0.220344 -0.294420 0.016256
0.015924 0.421099 0.079965
0.222814 -0.000451 0.358970
0.455285 0.296780 0.105943
0.426845 -0.035389 0.091062
-0.339521 -0.116989 -0.316953
-0.357154 -0.070688 -0.253490
-0.173213 -0.277004 -0.074904
0.220993 0.382553 -0.239982
0.317450 0.255849 0.419111
0.277263 -0.090192 -0.060011
0.218546 0.073324 -0.383086
-0.044291 -0.229045 -0.487055
0.197820 -0.019511 0.355016
0.388469 0.011982 -0.148611
0.035980 -0.145338 -0.049635
0.010060 -0.139405 -0.019665
0.090521 -0.182939 -0.433331
-0.214167 -0.331847 -0.147574
0.158874 0.430486 -0.297221
0.082079 -0.202571 -0.469684
-0.173548 -0.168071 -0.189953
-0.602455 -0.192861 -0.192854
0.076654 0.342061 -0.241609
-0.025209 0.353591 0.147125
0.377800 -0.097608 0.137315
-0.020269 0.047827 0.247636
0.094326 0.339505 -0.243037
0.288624 0.108576 -0.227645
0.463900 0.178948 0.270795
-0.153725 -0.034084 -0.475169
0.024337 0.008627 -0.483747
0.332420 0.358141 -0.084894
0.457763 0.176020 0.361175
0.232033 0.434204 -0.167987
0.493851 0.111405 0.017438
0.434180 0.128394 0.272729
-0.195109 -0.241151 -0.042593
-0.018518 -0.086601 -0.534621
-0.056078 -0.093449 0.070559
0.241595 0.441268 -0.199663
-0.437263 -0.129930 -0.282831
-0.174914 -0.184929 -0.152368
0.137435 0.140829 0.359913
0.246992 -0.075559 0.311084
0.104929 0.168575 0.348996
-0.299620 -0.299535 0.047081
0.228068 -0.128750 -0.078872
0.065063 0.282484 0.296818
0.103857 0.062213 -0.451398
0.019454 -0.194084 -0.344415
-0.138450 -0.192304 -0.499787
0.464476 0.229987 0.289509
0.227689 0.105212 0.376532
0.134323 0.471570 0.134067
0.217707 0.283618 -0.254377
0.088584 0.486356 -0.126713
0.245381 0.396028 -0.294809
0.123805 0.472395 0.075352
-0.158069 -0.121782 -0.232384
-0.279169 -0.289208 0.002156
-0.096013 0.197702 -0.019935
0.460838 0.095225 0.200277
0.382628 0.133263 0.442367
0.391875 0.263066 0.380212
-0.126966 -0.208931 -0.484712
0.090595 0.347869 0.278088
0.324038 0.401966 -0.262980
-0.084966 0.330439 0.088499
-0.075900 0.248199 -0.104773
-0.006422 -0.211559 -0.506308
0.103532 -0.179912 -0.454967
-0.054450 0.292492 -0.024574
0.001512 0.360822 0.000474
0.400493 0.035237 0.269107
0.060700 0.219626 -0.443927
-0.248659 -0.305484 0.046209
-0.358799 -0.173889 -0.242147
-0.186150 -0.044856 -0.443399
0.112886 -0.064990 -0.370417
0.136510 -0.096555 -0.394951
-0.016916 -0.125258 0.002760
0.365881 0.094309 0.437745
0.176688 0.307716 0.334852
-0.133145 -0.146012 -0.510331
0.182895 0.132034 -0.424738
-0.130825 0.040515 -0.460522
0.131687 0.196036 -0.439677
-0.055573 -0.222217 -0.493807
0.246588 -0.021727 0.343510
0.064522 0.398969 -0.125279
0.295270 0.416297 -0.232207
-0.158944 0.063867 -0.352449
-0.119428 0.045981 -0.040473
0.450506 0.014846 0.135242
0.041980 -0.203613 -0.394272
0.482155 0.279672 -0.166130
0.115828 0.512941 -0.279626
0.453583 0.178250 -0.079717
-0.083249 -0.210616 -0.501584
0.320239 -0.008516 -0.162176
-0.287375 -0.293788 -0.008173
0.372786 0.168271 -0.125787
-0.262619 -0.249927 -0.105680
-0.593668 -0.176352 -0.161259
0.084339 -0.116138 0.273630
