-0.087269 -0.289283 0.018765
0.066891 0.482733 0.017626
-0.085191 -0.397285 0.020005
0.084991 0.164055 -0.020676
-0.052886 -0.227145 0.009975
0.065501 -0.153340 0.021469
-0.095775 0.184643 -0.008042
-0.088030 -0.032530 -0.018704
0.056672 0.047701 0.015502
0.052979 -0.365411 0.010275
-0.079333 -0.265428 0.022347
0.093731 -0.390860 -0.012349
0.062082 0.126465 0.019834
0.088479 0.344402 -0.018354
0.094560 0.017627 0.010335
0.053043 0.405269 -0.010821
0.061588 0.089576 -0.020139
-0.096816 -0.157264 -0.003856
0.060321 -0.263182 -0.019215
0.090836 0.010423 -0.016157
-0.080552 0.258913 0.022043
-0.097039 -0.220666 0.000788
-0.062999 -0.165256 0.020398
-0.074230 0.160110 -0.023072
-0.096790 0.406295 -0.004139
-0.096107 0.451571 0.006476
-0.050491 -0.047395 -0.001339
-0.050974 0.483561 -0.005133
0.084605 0.207453 0.020381
0.052760 -0.007426 -0.010352
0.079185 0.162901 0.022374
-0.052236 -0.243916 -0.009149
0.067937 0.380361 -0.022789
0.096631 -0.351875 0.004159
-0.051741 0.419858 -0.007729
-0.055995 -0.432433 0.014755
0.050544 0.031240 0.001345
0.071758 -0.451550 -0.023072
-0.067913 0.038357 0.022267
0.057761 -0.321491 0.016657
-0.078607 0.176386 0.022495
0.052289 0.285468 0.008625
0.070030 0.059033 0.022714
-0.066818 -0.342960 -0.022456
-0.094733 0.075409 -0.010355
-0.088407 -0.193576 0.017819
-0.072390 -0.089066 -0.023072
-0.058835 -0.500000 -0.015948
0.067190 0.454482 0.019650
-0.051135 0.371584 -0.005745
0.090237 0.352551 -0.016693
-0.094844 0.126997 0.009705
-0.070180 -0.363153 -0.023072
0.095633 -0.282355 -0.008362
-0.086168 0.448950 0.019499
-0.089623 0.456302 0.016808
-0.068638 -0.327796 -0.023003
0.074799 -0.110114 -0.023072
-0.094186 -0.282765 -0.011570
-0.097044 -0.201778 0.000716
0.097067 0.370855 -0.000720
-0.068332 0.000436 -0.022912
-0.082158 0.378197 -0.022024
0.053807 -0.189538 0.011642
-0.053280 -0.200555 -0.011270
0.054639 -0.158109 0.013017
-0.093377 0.443569 0.012275
0.096544 -0.336178 -0.005376
-0.089915 -0.207026 -0.017020
-0.071178 0.053830 0.022856
0.051635 -0.139507 -0.007475
-0.062344 0.202966 -0.020564
0.074634 -0.231927 0.023037
0.089060 0.073274 0.017286
-0.079183 0.445980 -0.022924
-0.096922 -0.398275 -0.002583
-0.067249 -0.454860 -0.022586
0.057531 0.151242 0.016466
-0.096997 0.124000 0.001352
0.054525 -0.351716 0.012829
-0.077579 -0.171508 0.022705
0.061029 -0.045233 -0.019733
-0.096912 0.386543 0.002507
-0.057121 -0.064434 0.015999
-0.052457 0.152162 0.009169
0.089396 0.099375 -0.017525
0.081081 0.428229 -0.022357
-0.077721 -0.221137 0.022676
0.090644 0.062108 0.015816
-0.050873 -0.463769 -0.004403
0.093539 0.471185 -0.012652
-0.074098 0.181070 0.023023
-0.051740 0.275832 0.007156
-0.051437 0.282903 -0.006733
-0.058108 0.347538 0.016916
-0.082597 -0.331885 -0.021841
-0.051324 -0.485186 0.006010
-0.096529 0.319051 0.004627
0.076088 -0.175659 -0.023072
0.051400 -0.008804 0.006238
0.053971 -0.081239 -0.012462
-0.066838 0.320290 -0.022462
0.094839 -0.141893 -0.010147
0.057739 0.089577 -0.017110
0.084871 0.455025 0.019611
-0.056991 0.257218 0.015880
-0.094096 0.172272 0.011088
0.066562 0.400567 -0.022373
-0.081716 -0.342619 0.021601
-0.056022 -0.225851 -0.015396
0.091118 0.369671 0.015344
-0.094131 -0.493930 -0.011674
-0.085139 0.146310 0.020035
0.094240 0.053141 0.010801
0.095801 -0.273672 0.007234
0.086700 0.358172 -0.019608
0.060918 -0.394530 -0.019651
-0.052383 -0.085928 0.009029
0.097060 -0.190412 -0.000261
0.057462 -0.424416 -0.016823
0.057333 0.199735 0.016270
0.087019 -0.130258 0.018868
0.053878 -0.318507 -0.012325
0.051499 -0.220472 0.006647
0.085821 0.092425 -0.020228
-0.059418 0.254754 -0.018587
-0.096294 -0.241379 0.005657
-0.096952 0.033698 -0.002625
-0.053717 -0.422135 0.011533
0.094116 0.496707 0.011033
-0.055790 -0.473357 0.014567
0.096435 0.489046 0.005344
-0.054893 0.303594 0.013321
-0.054462 -0.321280 0.012762
-0.082008 -0.169190 0.021491
0.065941 0.319331 0.021636
0.055592 0.137756 0.014246
-0.090323 -0.004625 -0.016618
-0.051765 -0.027822 -0.007934
0.078618 -0.408872 -0.023072
0.058071 0.029852 0.016962
0.057460 -0.331182 -0.016821
0.053471 -0.312546 -0.011723
0.075094 0.227227 -0.023072
0.068359 0.419667 0.022144
0.050568 0.171775 -0.001662
-0.091564 0.072258 0.014724
-0.088781 -0.178825 0.017508
0.050474 0.186180 0.000056
-0.053413 -0.208895 -0.011541
-0.093448 -0.459730 0.012180
-0.096926 0.383257 -0.002529
0.056535 0.022898 0.015426
0.066955 -0.356982 -0.022492
-0.090167 0.293837 0.016347
-0.061632 -0.309025 0.019581
0.071361 -0.432762 0.021206
-0.058220 0.095261 0.017020
0.066806 0.441879 0.020553
0.087129 0.020543 -0.019397
-0.097062 -0.425895 0.000468
-0.058530 -0.241381 0.017308
0.051303 -0.153465 0.005789
0.051392 -0.131881 0.006180
-0.054291 -0.433428 -0.012984
-0.070291 -0.209998 0.022765
0.050766 0.115111 -0.004037
-0.082115 0.090025 -0.022037
-0.062284 -0.227708 -0.020535
-0.087373 -0.113200 -0.019122
-0.096881 -0.354079 0.002932
0.064384 0.072598 -0.021551
-0.054080 -0.380543 -0.012689
-0.083615 -0.500000 0.004762
0.055371 0.054600 0.013989
-0.051032 0.475793 0.004860
0.050496 -0.309675 0.000359
0.057140 -0.080158 -0.016489
-0.096416 -0.199888 -0.005594
0.084284 -0.175832 0.020524
0.091639 -0.475756 0.014731
-0.087781 -0.227316 0.018340
0.077991 0.138807 0.022691
0.082553 0.012033 0.021344
-0.081420 -0.365273 -0.022248
-0.050528 0.262652 0.001273
0.063374 -0.110569 -0.021051
-0.050714 0.029740 -0.003598
0.078138 0.423850 0.021844
-0.093410 -0.390203 0.012220
0.070110 0.293868 0.022730
0.077048 0.263471 -0.023072
0.079202 -0.490859 0.017044
0.054457 -0.241946 0.012716
0.057142 0.141729 -0.016491
0.058458 -0.216767 -0.017855
0.091241 -0.042815 -0.015701
0.052475 0.498221 -0.009591
-0.079681 -0.454364 0.019658
-0.096618 -0.483903 0.004469
0.053039 -0.155441 -0.010812
0.081431 0.200465 0.021778
0.050588 -0.483945 0.002122
0.050724 -0.304775 -0.003535
0.087822 0.210261 0.018340
-0.096996 0.112152 0.001372
0.050677 0.262455 -0.002973
-0.050498 -0.397181 -0.000874
0.084457 -0.247637 -0.020935
0.050863 -0.290536 0.003858
0.070553 -0.442183 0.020531
0.096412 -0.491321 0.005429
0.072963 -0.427621 -0.023072
-0.052674 0.450648 -0.010038
-0.094756 0.389021 -0.010305
-0.050621 0.124328 0.002269
-0.051691 0.300462 -0.007567
0.078902 0.438613 -0.023011
-0.077061 -0.172452 -0.023072
0.095084 -0.452865 0.009217
0.058621 -0.449551 -0.017974
0.094351 -0.471544 -0.011244
0.057557 -0.363059 -0.016921
-0.052325 -0.281976 0.008892
0.089108 0.183374 0.017241
-0.095730 -0.361764 -0.008141
-0.060112 -0.348816 -0.019077
-0.095009 0.429335 0.009295
0.051220 0.263564 0.005427
0.051324 -0.252620 -0.006268
-0.055879 0.232427 0.014604
0.075420 -0.481336 -0.023072
-0.084944 0.013672 0.020210
0.096850 0.117566 0.002843
-0.054004 0.296735 0.012073
-0.084898 -0.118235 -0.020702
-0.056666 0.137197 -0.016035
0.097020 -0.112266 0.001827
-0.090652 -0.076680 -0.016256
0.071727 -0.177095 -0.023072
-0.050995 0.409591 -0.005282
-0.054556 0.424003 0.012884
0.060784 -0.161705 0.019078
-0.092240 -0.424086 -0.014466
-0.081872 0.500000 -0.006216
-0.055168 -0.091806 -0.014206
0.079434 -0.167356 -0.022851
-0.094195 0.121363 0.010924
-0.061316 -0.065558 -0.019925
0.060611 -0.468328 0.018658
0.087784 0.306875 0.018364
0.064862 -0.319399 -0.021788
-0.094474 -0.229447 0.010463
0.051876 -0.216493 -0.008229
0.080106 0.262877 0.022130
0.096542 0.438050 0.004692
-0.068023 -0.023495 0.022344
-0.054690 0.168619 -0.013540
-0.076818 0.114963 0.022860
0.065343 0.148410 0.021409
0.081142 0.375219 -0.022339
-0.050505 0.413484 -0.000332
0.062067 0.314203 0.019825
-0.095539 -0.052171 0.007975
-0.072755 0.464036 0.018965
-0.085423 0.247970 -0.020442
-0.061217 -0.339267 0.019308
-0.052022 -0.080476 -0.008650
0.066455 -0.337075 0.021831
0.055987 0.051790 -0.015294
0.096862 -0.443861 0.002771
-0.088104 -0.485257 0.017445
-0.092550 -0.075717 0.013578
0.060670 0.062689 -0.019470
0.094345 0.308555 0.010604
0.080049 -0.126874 0.022145
-0.090630 0.183865 0.015809
-0.069939 -0.294186 -0.023072
-0.096912 0.313652 -0.002702
-0.088700 0.086040 0.017576
0.096480 0.379578 0.005066
-0.084865 0.362190 -0.020718
-0.051937 0.269315 -0.008372
-0.052184 0.182159 -0.009042
-0.054064 -0.367354 -0.012667
-0.054980 0.180942 0.013435
0.079472 -0.000248 0.022272
-0.081743 0.343183 -0.022150
0.050601 -0.138323 -0.002060
0.096950 -0.225269 0.002242
0.097107 0.022279 0.000265
0.090184 0.379825 0.016243
-0.078541 0.123701 0.022509
-0.062982 0.425357 -0.020873
0.054931 -0.208568 -0.013882
-0.066769 0.402361 -0.022442
-0.082713 -0.082309 -0.021784
0.095406 -0.288161 0.008405
0.097035 0.194657 0.001564
-0.063150 -0.125464 -0.020955
0.061657 0.428244 0.019587
-0.094118 -0.455424 0.011051
-0.058642 -0.357467 0.017412
0.081063 -0.023480 0.021895
0.095242 0.009122 0.008899
-0.079484 0.411727 -0.022833
0.066844 0.429655 0.021428
0.096231 0.496586 0.006034
-0.050532 -0.425357 0.001559
0.058808 0.500000 0.015492
0.093437 0.422948 0.012308
-0.068092 0.468689 -0.022839
0.089929 -0.267849 -0.016997
0.086385 -0.401648 0.019285
0.094363 -0.422192 -0.011115
-0.052163 0.337341 -0.009000
0.080999 0.270761 -0.022381
0.090449 -0.332212 -0.016482
0.050498 0.268384 0.000384
0.094816 -0.013153 0.009801
-0.093653 -0.391366 -0.012377
0.082684 -0.101070 0.021235
-0.093894 0.062729 -0.012021
0.052743 -0.115391 0.009756
-0.052689 -0.186788 -0.010068
-0.055629 0.263678 -0.014848
-0.072238 -0.208398 -0.023072
-0.066031 -0.288025 0.021746
-0.093583 0.298037 -0.012481
-0.071517 0.500000 0.014680
0.068865 -0.100758 0.022476
0.086808 -0.312209 0.019007
0.089403 -0.152614 -0.017519
0.051278 -0.317013 -0.006089
0.086683 -0.095040 -0.019620
0.073642 -0.500000 0.008197
-0.050486 -0.038230 -0.000629
-0.063586 0.005788 -0.021205
-0.050954 -0.416556 -0.004991
0.052266 0.268344 0.008569
-0.053721 -0.396061 0.011542
-0.065864 0.445635 -0.022170
0.092068 -0.341983 -0.014666
0.062621 0.382983 0.020148
0.096978 0.450891 -0.002353
-0.050609 0.046688 0.002199
-0.091265 0.369146 0.015071
0.050507 0.358725 -0.000937
-0.096002 -0.024449 0.006839
-0.075500 -0.126768 0.022954
0.071687 -0.156727 0.022935
0.052806 0.340251 -0.010294
0.080848 0.025555 -0.022487
0.083800 0.419166 0.020761
-0.084939 -0.154572 0.020152
-0.082659 0.451404 -0.021811
-0.062026 -0.130566 0.019841
0.060246 -0.211823 -0.019160
-0.052021 -0.385916 0.007990
0.094440 0.429593 -0.010959
-0.074724 -0.116938 0.022992
0.080423 0.101393 0.022046
0.056300 -0.336145 -0.015619
0.057949 0.211324 0.016813
-0.096797 0.263527 -0.004079
-0.084912 0.289102 -0.020695
-0.072379 -0.435188 0.021032
0.052772 -0.091483 -0.010218
-0.093721 0.439245 -0.012276
0.057104 0.099408 -0.016452
-0.050508 0.320566 -0.000118
0.056805 0.249561 0.015656
0.075798 0.042794 -0.023072
-0.062399 -0.145372 -0.020591
-0.095744 -0.347839 -0.008109
-0.071768 -0.138183 0.022917
0.086850 -0.456855 -0.019504
-0.066921 0.325161 -0.022488
0.072946 -0.058186 0.022997
-0.083960 0.415612 -0.021166
-0.079615 0.070327 -0.022794
-0.059359 -0.057694 0.018078
0.095787 -0.238521 -0.007858
-0.051142 0.032452 0.005386
-0.094224 -0.460091 -0.011501
-0.075616 0.395229 0.022999
-0.089487 0.119955 -0.017464
0.074949 -0.392422 -0.023072
-0.092896 -0.233851 0.013069
0.076788 -0.087731 0.022815
0.083888 0.273745 0.020700
-0.067572 -0.080051 -0.022683
-0.051470 -0.043587 0.006356
-0.096196 -0.322886 0.006084
-0.073300 0.219449 -0.023072
-0.095169 0.364539 -0.009387
-0.052320 -0.179401 0.008878
-0.078443 -0.446808 -0.023072
-0.086615 0.210064 -0.019675
0.073804 0.472857 0.018334
0.053981 -0.473879 -0.012561
0.083418 -0.179338 -0.021439
-0.088683 0.446526 -0.018166
-0.095194 0.472431 -0.009495
-0.066772 0.441939 0.020548
0.096588 -0.440339 -0.005168
-0.093590 -0.171531 -0.012471
0.059188 0.474375 0.017928
0.096941 -0.179241 -0.002621
-0.095604 -0.071854 0.007812
-0.095356 -0.106486 -0.008972
-0.056243 -0.052958 -0.015615
0.069714 0.455227 -0.023072
0.071965 0.500000 -0.011682
0.061809 -0.025078 0.019753
-0.093179 -0.125526 0.012602
-0.096967 0.040788 -0.002042
0.053984 -0.178306 0.011935
0.050478 0.452645 0.000106
0.061546 0.078507 0.019522
0.096837 0.345320 -0.003369
0.088929 0.020440 0.017467
0.059514 -0.094643 0.018114
-0.052507 0.228457 0.009262
-0.086318 0.159655 0.019349
0.058591 -0.500000 0.010666
0.054492 -0.482165 -0.013381
-0.067485 0.013350 0.022196
-0.096585 -0.330861 -0.004936
0.065684 0.119862 -0.022108
0.050465 0.464182 -0.000063
0.096747 -0.146400 -0.004016
-0.079064 0.143890 -0.022960
-0.052483 -0.305654 0.009217
0.083455 -0.500000 -0.008568
-0.050887 0.494915 0.004073
-0.053635 0.388852 0.011380
0.056346 0.423610 0.015123
0.096959 -0.284558 0.002188
-0.050463 0.025402 0.000257
-0.095137 0.253516 0.008975
0.088285 -0.355416 0.018006
-0.054052 0.204023 -0.012651
0.050834 0.272782 0.003735
-0.075284 -0.167302 0.022964
0.050514 0.018589 -0.001793
0.092991 -0.275486 0.012909
-0.052140 -0.262106 -0.008954
0.090495 0.211873 -0.016437
0.051029 0.131975 -0.005120
0.094646 -0.473458 0.010155
0.051566 -0.269361 -0.007208
0.051685 -0.307238 -0.007669
-0.057564 -0.166328 0.016411
0.050543 0.144117 0.000995
0.070238 -0.378261 -0.023072
-0.088146 0.240055 0.018036
0.051743 -0.144065 -0.007895
-0.092752 0.423712 -0.013709
-0.095470 -0.490782 0.008317
0.088462 -0.180334 0.017841
-0.052465 0.277345 -0.009613
-0.076350 0.236992 0.022912
0.050952 0.464306 -0.004968
-0.086636 0.214592 0.019163
-0.050618 -0.200449 0.002254
0.057996 0.345833 -0.017376
-0.092497 0.364664 0.013639
-0.050517 -0.025733 -0.001926
-0.053713 -0.343823 -0.012150
0.055219 -0.308152 -0.014307
0.055475 -0.486025 0.014111
0.061079 0.253282 0.019250
-0.051585 0.500000 0.002905
0.093209 -0.451805 -0.013076
0.072507 -0.206116 -0.023072
0.085020 -0.286951 0.020183
0.085845 0.437118 -0.020212
-0.051756 -0.314387 -0.007778
-0.085893 -0.165196 0.019596
-0.051070 0.485204 0.005044
0.051073 -0.208227 -0.005294
-0.060134 0.408916 0.018596
0.068442 0.193355 -0.022942
0.097054 -0.341014 0.000198
0.061246 0.432008 -0.019890
0.050533 -0.230263 -0.001251
0.060813 0.406352 -0.019574
-0.082428 0.106861 -0.021925
0.050495 -0.174236 0.000344
-0.054707 0.050768 0.013079
-0.091474 0.409351 -0.015404
0.090477 -0.091023 0.015971
-0.096823 0.016862 0.003375
0.063117 0.173427 -0.020924
0.054324 -0.463375 -0.013043
-0.095318 -0.152867 0.008524
0.051440 0.038404 -0.006821
0.080081 -0.365385 0.022137
-0.064216 0.034496 -0.021506
0.066252 0.357536 0.021754
-0.057728 -0.047230 0.016563
-0.063699 -0.224553 0.020709
0.057158 -0.052748 0.016067
-0.066516 0.216270 0.021879
-0.087056 -0.415354 -0.019353
0.081000 -0.108052 0.021893
-0.081859 -0.144604 -0.022115
-0.096037 0.165160 -0.007064
-0.092672 -0.311228 -0.013828
-0.063688 0.418300 -0.021215
0.097002 0.402629 -0.002175
0.076518 -0.019928 0.022843
0.096965 0.381825 -0.002446
-0.075056 -0.323372 0.022976
0.089638 -0.476333 -0.017286
0.078956 -0.372524 0.022435
-0.095118 0.020723 -0.009694
-0.079929 0.395604 -0.022699
-0.072514 0.082731 0.022994
0.050504 -0.012925 -0.001551
-0.085328 -0.331429 0.019925
0.094409 0.187156 -0.011021
-0.051648 0.092947 -0.007426
0.052876 -0.006428 0.010000
-0.053815 0.155841 -0.012321
0.064284 0.053466 -0.021501
-0.051224 -0.098588 -0.006035
-0.051518 -0.453732 -0.007001
-0.057908 0.203717 -0.017265
0.097048 -0.065642 0.000653
0.083315 -0.068043 0.020955
-0.063828 -0.365670 0.020767
0.092682 -0.004736 0.013416
0.081265 0.173113 0.021822
-0.058006 -0.366259 0.016822
-0.088726 -0.480146 0.017637
-0.090075 0.243803 0.016433
-0.059632 0.307102 0.018265
0.088077 0.345741 0.018172
-0.050626 -0.088384 0.002301
-0.060501 -0.449319 0.018869
-0.096960 -0.298489 -0.002131
-0.096381 0.203211 -0.005728
-0.051655 -0.438053 -0.007448
-0.056839 0.294710 -0.016206
-0.053703 -0.292968 0.011508
-0.050573 -0.323351 0.001985
-0.061954 -0.174897 0.019793
-0.061141 0.034042 0.019300
0.067293 -0.333195 -0.022595
-0.096661 -0.017162 0.004242
0.094756 -0.019251 -0.010488
0.059602 0.032806 -0.018750
-0.089276 -0.195308 -0.017681
-0.087678 -0.465517 -0.018952
0.057431 -0.350437 0.016382
-0.085799 0.399094 -0.020256
-0.090783 0.107947 0.015631
0.051570 -0.253699 0.006833
-0.052952 0.250495 -0.010604
-0.093510 -0.032672 0.012131
-0.070234 0.406687 -0.023072
-0.058666 -0.320310 -0.018017
-0.072279 -0.099750 -0.023072
-0.094826 -0.089416 -0.010149
0.094713 -0.369506 -0.010404
0.086404 0.386250 0.019273
0.075820 -0.459778 -0.023072
0.051265 0.215355 0.005622
0.086885 0.195949 -0.019478
-0.087201 0.355948 0.018821
0.067844 -0.147872 -0.022761
0.067894 0.048356 0.022278
0.096722 0.082237 0.003614
0.058461 0.122887 -0.017858
0.050917 -0.249365 0.004097
0.086340 0.127160 0.019315
-0.077070 0.097347 0.022809
0.058609 0.379676 -0.017966
0.077770 0.395634 0.022727
-0.086797 0.500000 -0.005975
0.057063 0.163104 -0.016409
-0.092725 -0.063633 -0.013749
-0.097000 -0.471491 -0.002302
-0.068956 0.490699 0.017055
-0.061760 -0.329070 -0.020239
-0.050665 0.115703 0.002535
0.089953 0.086515 -0.016973
0.076995 -0.324527 -0.023072
-0.050469 0.485323 -0.000809
0.096451 0.370172 -0.005682
0.056516 -0.044959 0.015321
0.054124 -0.002210 0.012301
0.063836 0.000381 -0.021279
0.074595 -0.331174 -0.023072
0.093896 -0.066915 0.011448
0.050451 -0.412561 -0.000256
0.075188 -0.182617 -0.023072
0.074906 -0.080219 0.023009
0.054864 0.287969 -0.013782
0.063704 -0.168380 0.020778
0.094734 0.033062 -0.010447
-0.058700 0.268814 0.017466
-0.066500 -0.073303 -0.022361
-0.052269 -0.468879 -0.009261
-0.095952 -0.169401 0.006945
0.052674 0.343549 0.009584
-0.058136 0.442319 -0.017492
-0.059368 -0.151588 -0.018552
-0.096519 -0.204432 0.004670
-0.089684 0.161593 0.016758
0.056552 -0.491747 0.015361
0.063639 -0.403536 -0.021182
0.094785 0.239411 -0.010259
-0.087851 -0.423151 -0.018774
0.095138 -0.204454 -0.009541
0.064310 0.159637 -0.021514
-0.073321 -0.021696 0.023065
0.054090 -0.278775 -0.012639
-0.088906 0.017965 -0.018017
-0.083838 -0.069438 -0.021227
-0.058567 0.095354 -0.017918
0.050874 -0.226209 0.003910
0.062554 0.237695 -0.020645
-0.094870 0.044758 0.009639
-0.097005 -0.421259 0.001239
0.065818 0.129880 -0.022148
0.086626 0.391893 0.019126
0.092025 0.446210 -0.014726
-0.091194 -0.433451 0.015154
-0.086300 0.001064 -0.019929
0.074961 0.500000 0.008703
0.076268 0.066054 -0.023072
-0.054009 -0.155765 0.012082
-0.096206 -0.153352 -0.006408
-0.091202 0.283290 -0.015685
-0.065725 0.401802 0.021610
0.054241 -0.364292 -0.012861
-0.097037 -0.389794 0.000809
0.085245 0.182972 0.020035
0.064815 -0.058096 0.021209
0.071579 -0.120478 -0.023072
-0.095670 0.347295 -0.008275
0.058697 -0.479234 -0.018046
-0.056817 -0.005738 0.015753
-0.064456 -0.312404 0.021046
-0.055095 0.155907 0.013585
-0.096935 0.270941 0.002190
0.063425 0.156146 0.020616
0.051086 -0.463988 -0.005484
0.050795 0.138855 0.003564
0.082169 0.176568 -0.022030
-0.062338 -0.139472 0.020045
-0.057131 -0.189361 -0.016495
0.090526 -0.100203 0.015925
-0.091584 -0.279382 -0.015289
0.075959 -0.451497 0.019864
0.060965 -0.365044 -0.019685
-0.053817 -0.246723 0.011721
0.072315 -0.190924 0.022966
0.091595 -0.354079 0.014724
0.095215 0.377370 0.008972
-0.067001 -0.357579 0.022008
-0.074345 -0.082014 -0.023072
0.052157 0.248926 -0.008852
0.055345 0.010430 -0.014534
0.073298 0.013434 -0.023072
-0.073188 -0.205136 0.023064
-0.096555 -0.423668 -0.005053
0.072297 0.385806 -0.023072
-0.080508 0.220276 0.022059
-0.095806 0.258169 -0.007963
0.052068 0.000482 0.008268
0.088709 -0.086705 0.017613
-0.077977 -0.350903 0.022624
-0.052427 0.420757 0.009113
-0.050500 0.235136 -0.000683
0.056249 0.003894 0.015118
0.094052 0.247369 -0.011748
0.087761 0.233309 0.018379
0.062166 0.469187 0.018596
-0.092765 -0.296527 -0.013690
0.055840 -0.500000 -0.010617
0.052301 0.212057 0.008654
-0.088906 -0.170640 0.017405
-0.089331 -0.286049 -0.017625
0.082104 0.121542 -0.022050
0.078520 0.131787 0.022551
0.070617 0.034852 0.022847
-0.077420 -0.395965 -0.023072
-0.080681 0.353961 0.021994
-0.056198 -0.299807 0.015019
0.050677 -0.236924 -0.002973
0.074181 -0.270514 -0.023072
-0.090144 0.276265 -0.016782
-0.054818 0.299881 -0.013718
-0.089009 0.350843 0.017319
-0.070482 0.281464 -0.023072
0.095946 -0.138382 -0.007336
-0.092566 0.407018 0.013559
0.065297 0.085188 0.021391
-0.050490 -0.113083 -0.001396
-0.056014 -0.338255 -0.015385
0.050547 0.156165 -0.001409
0.065305 0.500000 0.011659
-0.056794 0.487947 0.015728
-0.053799 -0.264843 0.011688
-0.059264 0.042896 0.017993
0.069342 -0.159282 -0.023072
-0.050855 -0.227040 0.003674
-0.057700 0.218912 0.016537
0.087864 -0.233459 0.018312
0.069556 0.364873 -0.023072
0.062689 -0.012706 -0.020764
0.050479 -0.062700 0.000121
-0.056683 -0.111532 0.015593
0.079094 -0.052303 -0.022953
0.081371 -0.426411 0.021661
0.096736 0.015634 0.003885
0.094649 0.450431 -0.010534
0.094784 -0.333332 -0.010260
0.051828 -0.341464 0.007476
0.065860 0.225353 -0.022161
0.051158 -0.157675 -0.005621
0.077734 -0.377449 0.022727
-0.092743 0.378554 0.013322
0.095329 0.093053 -0.009152
0.067131 0.023170 -0.022623
-0.051479 0.476195 -0.007099
-0.050531 -0.359120 0.001502
-0.064230 -0.194243 -0.021478
0.093801 0.073380 0.011625
0.081268 -0.452770 0.019772
-0.094294 -0.419868 -0.011329
0.055250 -0.083099 0.013848
0.057014 0.369176 0.015900
-0.090117 0.313968 0.016399
-0.062232 -0.075496 0.019976
-0.096909 -0.307805 0.002551
0.082278 -0.309578 0.021416
-0.096026 -0.049831 -0.007106
-0.096582 -0.217351 0.004392
0.096334 -0.240472 0.005654
0.062141 -0.125060 0.019868
-0.070808 0.429922 0.021409
0.092217 -0.117795 -0.014459
-0.069680 0.344262 0.022701
-0.075668 0.334309 0.022946
-0.059493 -0.013202 -0.018683
0.083326 -0.388858 -0.021483
-0.050795 0.184093 0.003314
0.053877 -0.386981 -0.012323
-0.066682 -0.412000 0.021949
0.077594 0.411540 -0.023072
-0.092911 0.479359 0.013078
0.055751 -0.272014 0.014431
-0.051988 -0.406742 0.007892
-0.058283 -0.487393 -0.017637
-0.095132 0.315977 -0.009468
-0.070856 0.384479 -0.023072
-0.053345 0.466109 0.010910
0.050830 0.418727 -0.004349
-0.091973 0.486339 -0.014868
-0.096302 0.070888 -0.006036
0.066827 -0.259291 0.021972
0.083149 -0.493223 -0.021435
-0.070839 -0.422291 0.021956
-0.070460 -0.055549 0.022782
-0.074195 0.195702 -0.023072
-0.089490 -0.337139 0.016919
-0.058251 -0.102851 0.017049
-0.051248 0.468567 0.005749
0.063673 -0.422973 -0.021199
-0.050510 -0.186294 0.000002
-0.096612 -0.376307 0.004264
-0.094563 0.226345 -0.010733
0.050722 -0.203776 -0.003508
-0.058004 0.483629 0.016929
-0.050483 0.012153 -0.001415
-0.080547 0.429810 -0.022512
-0.052667 0.290128 -0.010025
-0.080159 -0.146058 0.022179
0.096627 0.138889 -0.004881
-0.079042 0.441084 -0.022967
0.056908 0.154090 -0.016249
0.093356 -0.256162 -0.012872
0.075412 0.145732 -0.023072
0.052005 0.350382 -0.008516
0.096584 -0.245082 -0.005193
0.096664 0.455866 -0.004616
0.068035 0.133318 0.022307
-0.051045 -0.341516 -0.005450
-0.083532 -0.037036 -0.021413
-0.078619 0.052253 -0.023072
0.083975 -0.150524 0.020662
0.056640 -0.296683 0.015464
-0.052606 -0.003958 -0.009939
0.057979 0.192030 -0.017359
0.091228 -0.186288 -0.015710
-0.053455 -0.015530 0.011165
-0.062906 -0.026776 -0.020884
0.095741 -0.435240 -0.008009
0.091937 0.002141 -0.014906
-0.052447 0.130871 -0.009578
-0.096804 -0.324629 -0.003991
0.094160 0.496833 -0.011579
-0.089888 -0.032549 0.016606
-0.093076 0.180863 0.012771
-0.076928 0.375327 -0.023072
-0.095342 0.239565 0.008464
0.083303 0.352288 0.020960
0.083991 -0.050764 0.020654
-0.070527 0.357809 0.022822
0.060551 -0.455148 -0.019386
0.095440 0.038811 -0.008939
-0.075908 -0.142647 0.022934
0.076569 0.275916 -0.023072
-0.082729 0.283127 0.021218
0.092704 0.291973 0.013282
-0.096489 0.209736 0.004803
-0.060351 -0.203004 -0.019245
0.067953 -0.417721 0.022283
-0.078122 0.481605 -0.023072
-0.095413 -0.402056 0.008287
-0.091194 0.282981 0.015153
0.050624 0.190647 -0.002333
-0.084779 0.500000 0.016244
0.051337 0.456470 -0.006347
-0.091871 -0.081866 0.014366
-0.058559 -0.460029 0.017353
-0.090591 -0.013744 -0.016444
0.093519 0.216967 -0.012644
-0.070349 0.091394 -0.023072
0.078987 -0.046909 -0.022985
0.096986 0.304925 -0.002297
-0.094713 -0.403532 -0.010399
-0.054446 0.119456 -0.013200
0.054561 -0.450187 -0.013335
-0.063024 -0.037712 0.020429
-0.090688 0.199013 0.015741
-0.050808 0.460455 -0.003936
-0.095459 -0.192523 0.008173
-0.081921 0.321715 0.021524
0.088631 -0.451026 0.017685
0.054602 -0.477774 0.012996
-0.059104 -0.107984 0.017841
-0.050881 0.388934 0.003829
-0.085064 -0.103271 -0.020619
0.087087 0.321096 -0.019336
0.092962 -0.429793 -0.013421
-0.053973 -0.474793 -0.012569
-0.094768 0.192193 0.009895
-0.078676 -0.444896 0.020336
-0.072596 0.359974 -0.023072
-0.095935 -0.253581 0.006987
0.050799 0.218581 -0.004230
0.085776 -0.441009 -0.020260
0.095283 -0.378022 0.008769
-0.082771 -0.487120 -0.021778
-0.082960 0.207159 -0.021661
-0.083805 0.479039 0.017891
-0.050525 -0.407104 -0.001893
-0.056536 0.005179 0.015454
0.085192 -0.376614 0.020070
-0.050502 -0.029226 0.001106
0.052293 -0.226756 0.008634
-0.057978 -0.174933 0.016795
0.086801 -0.080599 0.019011
0.058812 -0.120356 0.017530
-0.096944 -0.163513 -0.002320
-0.062072 -0.180906 0.019871
-0.096028 0.246554 0.006755
0.050603 0.404136 -0.002079
0.092584 -0.437855 -0.013948
-0.051866 -0.212327 0.007530
-0.095597 0.462199 0.007882
0.082334 0.197846 -0.021964
0.079166 0.160609 -0.022932
-0.062219 0.353221 -0.020503
0.051892 0.307744 -0.008265
-0.089071 -0.007647 0.017345
0.080128 0.150421 -0.022643
0.050687 -0.108246 0.002951
0.068018 0.002781 -0.022815
0.054246 -0.248470 0.012367
0.094763 -0.341300 0.009819
0.094176 -0.293274 0.010920
0.051197 0.037339 0.005415
0.052216 0.185599 -0.008984
-0.050472 0.478639 -0.000922
-0.086185 0.466294 -0.020010
-0.077122 -0.054764 0.022798
-0.095643 0.276674 -0.008335
-0.052585 -0.180833 -0.009858
0.096175 0.007442 -0.006762
-0.075564 -0.489133 0.017168
0.061062 0.265146 -0.019756
0.091435 0.251464 0.014932
-0.060018 -0.339242 -0.019010
-0.079815 0.467847 -0.022757
0.076374 0.324064 0.022858
0.071323 -0.094713 0.022917
0.050503 0.050290 0.000443
0.073755 -0.383028 -0.023072
0.050695 -0.078600 0.003059
0.089662 0.444073 0.016728
0.050668 0.430964 0.002687
0.074897 -0.135294 0.023010
-0.063533 -0.234095 0.020635
0.089693 -0.220465 0.016698
-0.096580 0.283243 -0.004956
0.082252 -0.029227 -0.022004
-0.086965 -0.267019 -0.019419
0.050480 0.488888 -0.000972
-0.051806 -0.066647 -0.007944
0.078435 0.338380 0.022573
0.072302 0.122493 -0.023072
0.064291 0.062018 0.021010
0.060921 -0.465865 -0.019703
-0.065374 -0.186308 0.021454
0.095350 -0.059023 0.008570
-0.051085 0.375058 0.005056
-0.093204 0.132051 0.012560
0.085971 0.380108 -0.020123
0.093693 0.026012 -0.012417
0.062962 -0.036024 -0.020885
-0.096536 -0.259417 -0.005127
0.085450 0.029551 0.019929
-0.079260 0.159972 -0.022901
0.051030 0.498407 -0.005127
0.050663 -0.179457 0.002624
-0.092132 0.402538 -0.014625
-0.061686 0.402007 0.019616
0.072380 -0.027561 -0.023072
0.055533 0.409283 0.014178
-0.096891 -0.125227 -0.002959
0.050471 -0.146822 0.000009
0.053996 -0.359699 -0.012499
0.055401 -0.420878 -0.014575
-0.096513 -0.292319 0.004696
-0.092852 -0.499037 -0.013574
0.051297 0.102651 0.005762
0.078808 0.187411 -0.023039
0.094535 0.139577 0.010247
-0.086193 0.059780 -0.019983
0.090968 0.298314 0.015515
0.090469 0.284667 -0.016463
0.070136 0.480439 -0.023072
0.096305 0.357481 -0.006161
-0.088460 0.444024 0.017775
0.086828 -0.170262 0.018994
-0.050514 -0.194279 -0.001816
0.073501 0.283000 0.023024
-0.078437 0.082852 0.022530
-0.095004 0.477258 -0.009948
0.052464 -0.098200 0.009060
-0.092627 -0.358424 -0.013893
0.097060 -0.360065 -0.000223
-0.050918 0.084170 0.004055
-0.069446 -0.204555 -0.023072
-0.078804 0.068102 0.022455
-0.055537 0.003609 -0.014799
0.089068 -0.500000 0.001145
0.086134 0.332482 0.019450
-0.070874 0.220340 0.022825
0.050527 0.258219 -0.001178
0.080946 0.484788 0.017479
0.080150 -0.330538 0.022118
0.071245 -0.131979 0.022914
-0.091644 -0.374588 -0.015227
0.085240 -0.034139 0.020055
0.050624 -0.219269 -0.002333
-0.062685 -0.081277 0.020259
-0.096980 0.009711 -0.002644
0.079221 0.330019 0.022365
-0.065700 0.006592 0.021624
-0.085266 0.217010 -0.020520
0.075915 -0.168015 0.022905
-0.057986 -0.484885 0.016912
0.053380 -0.339678 -0.011570
-0.090492 0.483891 0.015969
0.089278 -0.171285 -0.017642
-0.050505 0.072686 -0.000355
0.076563 -0.358940 0.022875
0.089906 -0.161559 0.016501
0.056890 -0.106074 -0.016230
-0.053048 -0.098462 0.010277
-0.076187 0.078916 0.022920
0.058537 0.455195 0.017302
-0.060548 0.134536 0.018868
0.056590 -0.454498 0.015407
-0.083091 0.271461 0.021080
0.096197 0.120791 0.006060
-0.080003 -0.184419 -0.022676
0.060004 0.188497 0.018521
-0.082946 -0.423098 0.021182
0.067620 -0.100196 -0.022693
0.051883 -0.055373 -0.008244
0.052872 -0.194618 -0.010440
0.054663 -0.143062 -0.013485
0.084223 -0.239854 0.020551
-0.059628 0.342554 0.018263
-0.092096 0.215302 -0.014679
-0.063213 0.181506 0.020493
0.050556 0.353014 -0.001520
-0.058896 0.104915 -0.018219
0.070343 0.384481 0.022802
0.094520 0.161008 0.010276
0.055394 0.465934 0.014016
0.052793 0.040947 -0.010307
-0.096931 0.417148 0.002246
0.051357 -0.299484 -0.006394
0.096593 0.064506 -0.005132
-0.062793 -0.208673 0.020307
0.073659 -0.497411 -0.023072
0.073202 -0.486449 0.017360
-0.051134 0.290726 0.005351
-0.094245 -0.130424 0.010841
0.071027 0.108673 0.022903
0.094861 -0.417726 0.009636
0.092432 -0.170419 -0.014159
-0.067623 -0.176104 -0.022698
0.093779 -0.500000 -0.009073
0.070093 0.096726 -0.023072
0.092690 0.157910 0.013301
-0.052112 -0.453575 0.008260
-0.087946 -0.080055 -0.018704
0.079841 -0.390042 0.022269
0.055746 -0.259795 -0.015044
-0.096451 -0.453709 -0.005457
-0.057811 0.457623 0.016646
0.060106 -0.170456 0.018606
0.063229 -0.371117 -0.020980
-0.096929 0.076900 0.002282
-0.079276 -0.372974 0.022361
0.051013 0.377154 -0.005060
-0.052276 -0.351903 -0.009229
0.092424 -0.327520 0.013646
0.076178 0.296016 -0.023072
-0.093491 0.118993 -0.012617
0.050690 -0.403056 -0.003128
0.081558 -0.236802 -0.022214
0.093855 -0.022654 0.011603
0.075303 0.242882 0.022968
0.096944 -0.199901 0.002278
-0.082363 0.422617 0.021409
-0.076211 0.149835 -0.023072
0.091365 -0.500000 -0.013434
-0.090674 0.500000 -0.015474
-0.060295 -0.444103 0.018727
-0.053593 -0.132463 -0.011907
-0.068574 0.062911 -0.022984
-0.087369 0.295966 -0.019125
-0.050508 -0.053047 -0.000166
-0.081866 -0.347701 0.021545
0.051375 -0.388612 -0.006466
0.081747 -0.262745 0.021652
0.080838 0.237011 -0.022430
-0.092054 0.089829 -0.014741
0.085780 -0.482169 0.017667
-0.066818 0.235403 0.021959
0.070752 -0.451507 0.019863
0.096146 -0.421247 0.006209
-0.088323 0.473376 -0.018482
0.067614 0.498871 0.016470
0.051279 0.207400 0.005686
-0.083445 0.322612 -0.021421
0.050666 0.108767 0.002667
-0.082361 0.457635 -0.021959
0.059912 0.216838 -0.018916
-0.059702 0.475995 -0.018844
0.058271 -0.113978 0.017081
-0.055805 0.129670 -0.015093
0.067511 0.103686 -0.022660
-0.096240 0.320107 -0.006275
0.096452 -0.370175 -0.005677
-0.096924 -0.304729 -0.002559
0.068453 0.357480 -0.022945
0.085744 0.035685 -0.020291
0.056885 0.163303 0.015749
-0.067978 -0.146194 0.022267
-0.073919 0.500000 0.009505
-0.050489 0.376984 -0.001489
0.083089 0.146922 -0.021598
0.079667 0.072147 0.022247
-0.095052 -0.343412 -0.009648
-0.092428 0.363802 -0.014188
0.076145 0.483784 -0.023072
-0.071482 -0.192723 0.022888
-0.067974 -0.236287 -0.022804
0.086147 0.469258 0.018591
-0.094765 -0.292597 0.009903
-0.083586 0.280147 -0.021352
-0.056299 0.462996 -0.015671
-0.075607 -0.458038 -0.023072
0.050859 -0.278943 -0.004461
0.055677 -0.074487 0.014345
-0.092223 -0.253508 -0.014491
0.095036 -0.146949 -0.009747
-0.053783 -0.452188 -0.012276
0.094055 0.440343 -0.011741
-0.068801 -0.400182 -0.023052
0.052897 -0.166691 -0.010495
-0.055648 -0.214242 0.014303
-0.053735 0.049668 -0.012195
-0.060958 0.346822 -0.019673
-0.096925 -0.399192 0.002326
-0.093223 0.294896 0.012529
-0.053586 0.284800 0.011289
0.075692 -0.034124 -0.023072
0.050727 0.470198 -0.003756
-0.078958 0.231810 0.022424
0.092144 -0.306853 0.014010
-0.075134 -0.268935 0.022972
0.092438 -0.232705 0.013628
-0.093177 -0.125026 -0.013081
0.090880 -0.260590 0.015596
-0.094783 0.285928 0.009856
0.087903 -0.279912 -0.018760
0.052077 -0.260718 0.008096
0.076612 -0.290331 0.022833
0.089247 0.028670 0.017189
0.060723 -0.340393 0.019043
-0.096352 0.281642 0.005402
-0.093465 -0.220600 -0.012655
0.075364 -0.141028 0.022962
0.070924 -0.464340 -0.023072
0.082854 0.298357 0.021160
-0.075901 -0.410801 0.022779
-0.077617 0.314990 -0.023072
-0.075930 -0.250482 0.022933
0.064422 -0.066860 0.021060
-0.071023 -0.495565 0.016707
0.056696 -0.179943 0.015530
-0.091474 -0.274756 0.014828
0.079307 -0.234094 0.022342
0.085315 -0.203881 0.019989
-0.053727 -0.124521 0.011553
0.051015 -0.488435 0.004825
-0.066468 -0.265224 -0.022352
-0.067747 -0.386556 0.022259
-0.090511 0.394220 -0.016402
-0.095023 0.124267 -0.009711
-0.069281 0.335867 -0.023072
-0.050681 -0.255850 -0.003019
-0.084543 0.492962 0.016893
0.089544 -0.442867 0.016837
-0.096220 -0.011635 -0.006598
-0.070640 -0.167062 0.022801
-0.084875 0.006488 -0.020713
-0.056519 0.148154 -0.015889
0.059674 0.182246 -0.018743
-0.072195 0.288086 -0.023072
-0.055189 0.337558 -0.014235
-0.052559 -0.273989 -0.009805
-0.096664 -0.029325 -0.004739
-0.066116 -0.349161 -0.022246
0.059843 -0.068037 0.018387
-0.088675 -0.187036 0.017596
0.094907 0.181526 -0.010009
0.090740 -0.389582 -0.016194
-0.070780 0.250346 -0.023072
0.060052 -0.116239 -0.019019
-0.054787 -0.181921 0.013183
0.097077 0.142054 -0.001453
-0.077740 0.482631 0.017633
0.082441 -0.456005 -0.021912
0.087879 0.206895 -0.018777
-0.080708 -0.368188 0.021984
0.050538 0.203600 -0.001300
-0.085643 -0.308870 0.019742
-0.095223 -0.080233 -0.009267
0.056531 0.088822 0.015337
-0.068452 0.047522 0.022393
0.061956 -0.322930 0.019761
0.087396 0.311682 -0.019118
-0.073364 -0.433785 -0.023072
0.055273 0.273010 -0.014387
0.058025 0.332962 -0.017407
-0.055704 0.368066 0.014376
0.086581 0.445098 -0.019692
0.051897 0.080022 -0.008276
-0.083790 0.018856 -0.021326
-0.050573 0.253095 0.001980
-0.088400 -0.042176 0.017831
0.086532 -0.430594 -0.019727
0.073843 0.113558 -0.023072
-0.075208 0.424826 -0.023072
-0.077311 0.164248 0.022760
-0.092719 -0.209551 -0.013758
-0.067744 0.179864 0.022205
-0.073929 -0.298560 0.023031
-0.075808 -0.314033 -0.023072
0.081515 0.307342 -0.022227
-0.096308 0.389350 -0.006012
-0.078993 -0.216680 -0.022982
0.087639 0.063496 -0.018946
0.083959 -0.205010 -0.021177
-0.085979 0.027263 0.019612
-0.095703 0.445835 -0.008200
0.059153 -0.316471 -0.018362
0.078859 -0.177380 0.022461
0.090550 0.095009 -0.016382
0.055978 -0.321359 -0.015285
-0.063481 0.341942 -0.021115
0.052425 -0.120383 -0.009448
-0.082555 0.355013 -0.021862
0.050740 -0.352089 -0.003720
-0.057546 -0.111512 -0.016907
0.069637 -0.371425 -0.023072
0.097021 -0.023117 -0.002215
-0.096798 0.241853 -0.004069
0.053852 0.011323 0.011868
0.065093 -0.277950 0.021314
0.095067 -0.288149 -0.009685
0.083749 0.189911 0.020762
0.055529 -0.496031 -0.014781
-0.089062 0.027116 -0.017893
-0.097115 0.021310 -0.000251
0.076047 0.265693 0.022892
-0.079671 -0.414313 0.022315
-0.066452 -0.302590 0.021862
0.078924 0.007292 0.022483
-0.096842 0.354390 0.003253
0.094303 0.136526 -0.011237
-0.062817 -0.221748 -0.020793
0.096718 0.350211 0.003636
0.052963 0.265154 -0.010643
-0.094967 0.289248 -0.009836
-0.082006 -0.014838 0.021574
0.097033 -0.422553 0.001699
-0.089183 0.431581 0.017175
0.062405 0.316155 -0.020572
0.061881 -0.180270 -0.020312
-0.069749 0.275159 0.022709
0.052801 0.286048 -0.010283
0.071021 0.253410 0.022903
0.061174 0.226055 -0.019837
0.080688 0.358900 0.021976
0.066419 -0.076147 -0.022330
-0.053008 -0.317065 0.010203
0.050539 -0.378576 -0.001313
0.050474 0.236963 -0.000537
0.075057 0.128478 0.022994
0.051511 -0.459110 -0.007061
-0.092199 -0.287883 0.013985
0.091598 -0.312298 -0.015322
0.080727 -0.500000 -0.017127
-0.074856 0.040107 -0.023072
0.058228 -0.333534 0.017045
-0.091515 -0.368711 0.014780
-0.050511 -0.168502 -0.001792
0.096348 -0.191107 -0.006020
0.075567 0.020032 0.022941
-0.097045 0.261994 0.000699
-0.094503 0.361155 0.010415
-0.091142 0.093040 0.015215
0.050575 -0.151808 0.001422
-0.061714 -0.006292 -0.020228
-0.095087 -0.189211 -0.009570
0.084390 0.434790 0.020496
-0.064200 0.492062 -0.021367
0.097021 -0.467908 -0.002038
-0.089280 0.321419 0.017093
-0.083106 0.165488 0.021074
-0.060570 0.032776 -0.019448
-0.070845 -0.286420 -0.023072
-0.089518 0.399122 -0.017431
-0.077697 0.119401 -0.023072
-0.086465 -0.220488 -0.019785
-0.054607 0.098547 0.012950
-0.095573 0.276570 0.007889
-0.080684 -0.476383 -0.022544
0.052254 0.482862 0.008705
0.097063 -0.325148 -0.000466
0.090921 0.389992 -0.016015
-0.068082 0.170636 -0.022836
-0.051833 0.353002 0.007432
0.094932 0.488287 0.009559
0.072569 0.320308 0.022979
-0.057091 0.451301 0.015972
-0.050960 -0.040722 -0.005091
-0.093636 -0.226295 -0.012403
-0.081346 0.292333 0.021742
0.064965 -0.409863 -0.021839
-0.051788 -0.375896 0.007301
-0.050685 0.000235 -0.003317
0.072163 -0.499865 0.016399
0.096486 0.188979 -0.005568
0.078736 0.252808 -0.023061
-0.083455 -0.247393 0.020942
-0.050504 -0.415595 -0.000401
-0.095444 -0.473144 0.008364
-0.055269 0.484479 -0.014433
-0.056570 0.037480 -0.015972
-0.066577 0.260634 0.021895
-0.085366 -0.382532 0.019903
-0.065247 -0.290233 -0.021971
-0.077290 0.104519 0.022764
0.052525 -0.347979 -0.009671
0.093555 0.391848 -0.012594
0.066008 -0.126457 -0.022206
0.093539 -0.316527 -0.012616
0.083877 -0.469765 0.018555
-0.050994 0.247904 -0.005278
0.076113 -0.298351 0.022885
0.054955 -0.010692 0.013516
-0.096849 0.396188 -0.003461
-0.076942 0.177978 -0.023072
-0.093069 0.243610 0.012783
-0.094344 0.310139 0.010678
-0.078448 0.202391 -0.023072
0.052812 -0.335307 0.009928
0.085325 -0.271265 -0.020515
0.067514 0.170797 0.022200
0.087934 -0.343360 0.018266
0.085283 -0.109522 0.020010
-0.091297 0.128616 0.015034
0.078995 -0.258763 -0.022983
0.077797 0.060326 0.022711
0.064548 0.490974 -0.021668
-0.080995 0.362181 0.021875
0.055474 0.203695 -0.014683
-0.097022 0.465358 0.001130
-0.089554 0.330569 -0.017394
-0.074556 -0.338629 0.023000
0.077931 0.232151 0.022697
0.061192 -0.427888 -0.019850
-0.071660 -0.258788 -0.023072
-0.072845 0.167642 0.023028
-0.050716 -0.225144 -0.003270
0.092680 0.267269 0.013314
0.051123 0.239891 0.005000
-0.054500 0.409025 0.012810
-0.078801 -0.441137 -0.023040
0.064271 0.461654 -0.021524
-0.057449 -0.251610 -0.016810
0.078779 -0.491187 -0.023048
-0.095693 -0.393891 0.007589
0.095053 -0.404988 -0.009713
0.059665 0.217336 0.018239
0.057228 -0.273333 -0.016580
-0.076320 0.495384 0.016720
-0.050508 0.082039 -0.000115
0.081782 0.402825 0.021636
0.084038 0.070223 -0.021138
0.086804 -0.002707 -0.019571
0.092157 0.452104 -0.014543
0.060689 -0.442932 -0.019483
0.055118 -0.212404 0.013695
0.068225 0.122365 0.022345
-0.060495 0.452893 0.018864
0.058581 0.471759 -0.017954
0.087436 -0.079163 -0.019090
-0.088285 -0.141659 0.017920
0.056388 0.242818 -0.015709
0.089917 -0.500000 0.012227
0.051192 -0.421579 0.005302
0.057371 -0.326177 0.016314
0.060941 -0.389917 0.019170
-0.080665 0.027422 -0.022537
0.095520 0.347185 -0.008732
-0.067267 0.500000 0.011372
-0.051841 0.318247 -0.008056
-0.084320 0.239204 0.020512
0.068519 0.018554 -0.022981
-0.051112 0.113127 -0.005671
0.086747 0.220540 0.019047
-0.050522 0.420668 0.000831
0.096609 -0.403158 -0.005015
0.094674 0.050686 -0.010483
-0.054397 0.476289 -0.013216
-0.064882 -0.053361 0.021235
-0.093821 0.166645 0.011542
0.079148 0.441154 0.020604
-0.062293 0.314263 -0.020539
-0.092888 -0.267208 0.013082
-0.091623 0.481541 -0.015249
0.054905 0.086249 -0.013843
-0.096587 -0.083747 0.004373
-0.053175 0.136072 0.010516
-0.096324 0.084513 0.005526
0.094706 -0.160848 -0.010419
-0.083298 -0.467440 -0.021544
-0.095805 -0.246237 0.007311
-0.060001 0.168478 -0.018998
0.058661 0.273314 -0.018004
-0.052089 0.301457 0.008193
-0.061528 -0.477816 0.017978
-0.096452 -0.226405 -0.005455
-0.074738 0.259297 -0.023072
-0.061068 -0.366859 -0.019750
-0.064653 -0.332359 0.021133
-0.054412 -0.359937 0.012696
0.050546 0.292648 0.001026
0.086064 0.367030 -0.020057
-0.095938 -0.006307 0.006945
-0.058509 -0.128042 0.017288
-0.092889 -0.008257 -0.013625
-0.089767 -0.336859 -0.017173
0.081384 0.494662 -0.022103
0.074252 0.161604 -0.023072
0.076002 0.194547 0.022896
-0.087431 0.065129 -0.019080
0.076616 -0.200059 -0.023072
-0.059150 0.085780 0.017883
-0.050842 0.238431 0.003600
-0.096515 -0.481934 -0.005443
0.096052 0.453750 0.006490
-0.073896 0.346525 0.023032
-0.054864 -0.190538 0.013284
0.065416 -0.427249 -0.022027
0.066199 0.390158 0.021733
-0.094823 -0.033122 -0.010270
-0.067128 0.500000 -0.014063
0.096739 -0.270605 0.003511
-0.057832 0.465250 0.016704
0.054256 -0.325849 0.012384
-0.073933 -0.153917 -0.023072
0.059564 -0.237168 -0.018662
0.065280 -0.366995 0.021385
-0.085827 -0.132462 -0.020242
0.054013 0.388477 -0.012525
-0.067702 -0.092709 -0.022722
-0.058960 -0.357838 -0.018264
-0.065092 0.151964 0.021329
0.068179 -0.486016 -0.022893
0.091570 0.400820 -0.015361
-0.055813 -0.418627 0.014518
0.059831 -0.487195 0.017307
-0.096640 -0.432864 -0.004723
-0.050670 -0.405885 0.002563
0.063459 -0.029508 0.020651
-0.096908 -0.343575 0.002557
-0.096216 -0.460395 -0.006458
-0.065175 0.242770 -0.021936
0.088814 0.267715 0.017515
-0.071002 -0.407690 0.022904
0.083655 0.132774 0.020804
-0.050609 -0.419561 0.002200
-0.096675 0.376218 -0.004587
-0.050529 0.220024 0.001329
0.093002 0.173707 -0.013365
0.064995 0.108081 0.021277
-0.081342 -0.383719 0.021743
0.092207 0.405428 0.013929
0.078985 0.156057 -0.022986
0.069229 -0.131183 -0.023072
0.068743 0.424684 -0.023033
-0.096992 0.032354 0.001776
0.056979 -0.004741 0.015921
-0.096200 -0.179361 -0.006434
-0.085488 -0.051555 -0.020410
-0.050458 -0.012145 -0.000294
0.093805 0.370606 -0.012246
-0.069706 0.258468 -0.023072
0.096662 -0.481508 0.004246
0.096946 -0.205620 0.002271
0.050691 -0.435969 -0.003134
-0.066498 0.321720 0.021875
0.091697 0.384315 0.014592
-0.050736 -0.143504 -0.003414
0.051099 0.361304 0.004895
0.094830 -0.246569 -0.010166
-0.057089 -0.281455 -0.016454
0.076032 0.077378 0.022893
-0.064287 0.386821 -0.021506
0.084755 0.386310 -0.020791
0.093287 0.132355 -0.012967
0.097048 0.283874 0.000629
-0.053367 -0.036149 0.010933
0.095440 -0.201464 0.008305
-0.064516 -0.243647 0.021072
-0.051848 0.343616 0.007479
0.055585 -0.067261 0.014238
-0.096706 0.252929 0.003848
0.063343 0.171845 0.020568
0.050459 0.133476 -0.000362
-0.092229 -0.450407 -0.014483
0.091826 0.473768 0.014508
-0.095851 -0.321150 -0.007788
-0.096441 0.363179 0.005012
-0.059665 -0.223201 0.018287
0.051161 0.439359 0.005166
-0.087503 0.289713 0.018570
-0.060184 0.107191 0.018628
0.094275 -0.029384 -0.011383
0.072813 -0.250061 0.022990
-0.078477 0.407190 0.022587
0.053648 0.095198 -0.011985
-0.090822 -0.316557 -0.016079
0.050663 0.444698 0.002618
0.053288 0.487189 0.010851
0.071359 0.067497 0.022919
0.096985 -0.018272 -0.002588
-0.072739 -0.280143 0.023017
0.073168 0.159826 0.023008
-0.051023 -0.232435 -0.005377
-0.061141 0.500000 0.006527
-0.069376 -0.114516 0.022638
0.055617 -0.133815 0.014276
-0.081644 -0.292455 -0.022180
0.057882 0.293355 0.016758
0.094405 0.060162 0.010492
0.053872 -0.292276 0.011750
-0.079292 0.057789 -0.022891
0.066580 -0.254717 -0.022379
0.076205 0.083212 -0.023072
0.055471 -0.385710 0.014106
-0.081753 -0.243290 -0.022147
0.094600 -0.265691 -0.010633
0.075920 -0.062837 -0.023072
0.075100 0.337089 -0.023072
0.081935 -0.484497 0.017500
0.050762 -0.373570 -0.003988
-0.078484 -0.361345 -0.023072
0.087558 -0.000384 0.018538
-0.051351 -0.499980 -0.006453
0.078242 0.275076 0.022625
-0.094635 0.239725 -0.010573
0.064317 0.445231 -0.021518
0.094549 0.340323 -0.010737
0.061525 0.196663 0.019510
-0.061842 -0.319556 0.019719
0.076927 -0.154969 -0.023072
0.058832 0.410477 -0.018129
-0.052759 -0.033942 -0.010288
-0.091428 -0.151872 0.014881
0.067192 0.076125 -0.022564
0.057365 -0.232436 0.016307
-0.065910 -0.046754 0.021692
0.056624 0.114016 0.015446
0.055752 -0.447579 0.014432
-0.060078 0.500000 -0.018704
0.096308 -0.013889 -0.006291
0.054233 0.412346 -0.012849
0.053158 0.440682 -0.011075
0.071762 0.095122 0.022939
-0.050509 0.383910 -0.000084
-0.091285 -0.359016 0.015048
-0.094796 0.013428 0.009858
-0.050490 0.038599 -0.000478
0.050872 0.049634 -0.004511
-0.094223 0.386947 0.010878
0.095702 0.345743 0.007527
0.096776 0.491953 -0.003810
-0.088169 -0.390577 -0.018541
-0.096955 -0.265281 -0.002191
0.052523 -0.055955 0.009209
0.083894 -0.377950 -0.021208
0.084562 -0.119640 -0.020884
0.064488 -0.331217 0.021085
0.070440 -0.409135 0.022822
0.082135 -0.311515 -0.022040
-0.066655 0.435697 0.020995
0.096686 0.155991 -0.004457
0.084365 -0.500000 0.004444
-0.070683 0.441262 -0.023072
0.053235 -0.321294 0.010698
0.065157 0.287788 0.021338
-0.064775 0.118667 0.021187
-0.067928 -0.426554 -0.022790
0.096727 -0.231195 0.003583
-0.053150 -0.420421 -0.011007
-0.063206 -0.280668 0.020490
-0.081429 -0.252545 -0.022245
-0.086198 0.129521 0.019419
0.087989 0.131302 -0.018700
0.061070 -0.481796 0.017693
0.096947 0.276743 -0.002578
0.058494 -0.281626 0.017266
0.085301 -0.062825 -0.020526
0.082272 0.230726 -0.021994
-0.092815 -0.427690 0.013203
-0.058081 0.401870 -0.017437
0.095215 -0.038598 0.008970
-0.051025 0.148552 0.004697
-0.054909 0.398616 -0.013845
-0.074218 0.259370 0.023017
-0.086117 -0.281112 -0.020038
0.064927 -0.163624 0.021251
-0.066410 -0.241985 -0.022334
-0.071914 0.012529 -0.023072
-0.059566 -0.390692 -0.018692
0.061235 0.071800 0.019341
0.067519 0.172581 -0.022663
-0.074351 -0.500000 0.015010
-0.064679 0.251131 -0.021696
0.064021 -0.153588 -0.021372
-0.095996 -0.090438 0.006836
-0.094049 -0.344566 0.011165
0.083813 -0.013365 -0.021324
0.095201 -0.104098 0.008997
-0.051027 0.322700 0.004708
-0.058585 -0.194990 -0.017936
-0.095704 -0.241661 -0.008200
-0.069092 -0.376590 0.022563
-0.073836 0.322567 -0.023072
0.066257 -0.059040 -0.022281
0.067925 0.185741 0.022284
0.085809 -0.329260 0.019664
0.063894 0.081919 -0.021309
-0.058205 0.058810 0.017007
0.080499 0.076908 -0.022532
0.070504 -0.249913 -0.023072
-0.052399 0.339357 0.009060
0.060622 -0.130998 -0.019434
-0.068513 0.188223 0.022409
-0.051901 0.494775 -0.008324
-0.066427 0.406510 0.021871
0.079960 -0.208581 0.022169
-0.097071 0.052788 -0.000798
-0.066548 0.500000 0.005054
-0.054299 -0.441403 -0.012995
0.071376 -0.274911 -0.023072
-0.054776 -0.010631 -0.013790
-0.096738 -0.409914 -0.004344
-0.067500 -0.250179 0.022140
-0.091777 0.464395 -0.015090
0.060361 -0.240550 0.018818
0.074779 0.436591 0.020931
-0.068708 -0.127960 0.022461
0.062409 -0.251204 -0.020574
-0.064254 0.497547 0.016565
0.055747 0.084071 0.014426
-0.086180 0.426542 -0.019993
-0.078070 0.496956 -0.023072
-0.090276 -0.469914 -0.016645
-0.093171 0.327916 0.012615
0.079807 0.205613 0.022209
0.078446 0.500000 0.014730
-0.065711 0.081188 0.021603
0.095020 -0.478266 -0.009890
-0.088281 -0.114715 0.017924
0.064399 -0.238985 0.021051
-0.060306 0.166724 0.018709
-0.093459 0.257874 0.012139
0.070555 -0.299196 -0.023072
0.056443 0.402378 -0.015767
-0.054978 0.437517 0.013432
0.057480 0.358354 -0.016841
0.050863 -0.171490 -0.004476
0.070910 0.395412 -0.023072
0.069464 0.439667 -0.023072
0.050986 -0.274278 -0.004955
-0.096682 0.426786 -0.004561
0.053675 0.458762 -0.012054
0.077144 0.120251 0.022778
-0.055875 -0.002110 -0.015168
0.068714 0.143737 -0.023024
0.053469 0.020007 0.011179
0.085848 0.424338 0.019638
-0.060338 0.251044 0.018730
0.088226 -0.486091 0.017386
-0.093402 -0.443446 0.012233
0.051345 0.316183 0.005972
-0.094728 0.092677 -0.010366
-0.054872 0.376336 0.013294
-0.087768 -0.100816 0.018350
0.052542 0.335682 0.009255
-0.064589 -0.392851 -0.021652
-0.076520 -0.309793 0.022904
0.068849 -0.185315 -0.023065
0.071287 -0.206154 0.022916
-0.096358 0.224843 0.005378
-0.051626 -0.018025 -0.007534
-0.051393 0.286303 0.006129
-0.093714 0.109826 0.011717
-0.057635 0.150763 0.016477
-0.067142 0.144861 -0.022554
0.062521 -0.170236 -0.020629
-0.097087 -0.404255 -0.000606
0.096915 -0.311581 -0.002808
0.053145 0.375966 0.010549
-0.050979 -0.297482 0.004421
-0.060102 -0.246920 0.018575
-0.086642 0.194304 -0.019656
0.090248 0.491373 -0.016682
0.054567 0.349283 -0.013344
-0.096986 -0.078613 0.001498
0.080816 -0.263979 -0.022436
0.078417 -0.004337 -0.023072
