0.42860180 0.61245543 0.52046317 -0.00000924 0.00000040 0.00005345
0.44274634 0.88668823 0.48102498 0.00001997 0.00000191 -0.00004279
0.54993999 0.31039274 0.48738045 -0.00003552 -0.00000393 -0.00001898
0.43930361 0.86578268 0.47959864 0.00001337 0.00000259 -0.00004772
0.42480907 0.42517364 0.48019680 -0.00002244 0.00000447 -0.00005645
0.58673543 0.23803546 0.50764138 0.00005485 -0.00000753 0.00002293
0.58821636 0.67696095 0.50142229 0.00005878 -0.00000122 0.00001001
0.44259363 0.38594180 0.48095042 0.00001956 -0.00000266 -0.00004101
0.55605453 0.88931268 0.51780677 -0.00001796 0.00000056 0.00004102
0.41444090 0.08597818 0.51004678 -0.00006556 -0.00000316 0.00002824
0.44669181 0.17503001 0.51582950 0.00002877 -0.00000778 0.00002971
0.57369632 0.47865453 0.51990497 0.00001411 -0.00000037 0.00005151
0.58658636 0.50829273 0.50809044 0.00005313 -0.00000402 0.00002248
0.42774454 0.87429726 0.47924316 -0.00001141 0.00000304 -0.00005862
0.56076998 0.89059544 0.51948041 -0.00000167 0.00000385 0.00004844
0.58748543 0.95144182 0.50548589 0.00006746 0.00003229 0.00001513
0.45406455 0.11331181 0.50141770 0.00003542 -0.00000601 0.00000401
0.55346453 0.95454538 0.51408410 -0.00002760 0.00004865 0.00003627
0.58494544 0.88449818 0.51118952 0.00005418 0.00000702 0.00003099
0.43810090 0.92608094 0.47923771 0.00001014 0.00000076 -0.00005931
0.58175635 0.25650093 0.48454863 0.00004103 -0.00000417 -0.00004232
0.57853454 0.13486545 0.51753229 0.00003091 -0.00000825 0.00004968
0.58578724 0.11618909 0.48989588 0.00006012 -0.00000846 -0.00002933
0.45258179 0.80667365 0.49181861 0.00003204 0.00000140 -0.00001292
0.57363820 0.74614638 0.47965407 0.00001650 0.00000102 -0.00005550
0.58222908 0.19798909 0.48501679 0.00004329 -0.00000791 -0.00004426
0.54591000 0.74398547 0.50034952 -0.00003685 0.00000153 0.00000422
0.58619910 0.48804271 0.50891042 0.00005164 -0.00000065 0.00002809
0.41486362 0.14421274 0.48874858 -0.00005718 -0.00000552 -0.00003093
0.57516998 0.40811819 0.51930499 0.00001909 -0.00000363 0.00005173
0.41464454 0.55702639 0.48907223 -0.00005434 -0.00000190 -0.00003224
0.54795092 0.39509907 0.50886953 -0.00003424 -0.00000449 0.00001659
0.45210361 0.33019274 0.49084771 0.00003475 -0.00000575 -0.00001309
0.44943088 0.73970729 0.48650226 0.00003232 0.00000060 -0.00002020
0.43433180 0.31054729 0.47902587 0.00000295 -0.00000659 -0.00005167
0.43997452 0.23815911 0.51976949 0.00001900 -0.00000659 0.00004321
0.41492727 0.77094269 0.48865411 -0.00005548 0.00000070 -0.00003089
0.43498728 0.95454538 0.51334590 -0.00000219 0.00003853 0.00002504
0.56260723 0.40840182 0.52043319 -0.00001426 -0.00000270 0.00004717
0.57891911 0.21617363 0.51727957 0.00002897 -0.00000624 0.00004872
0.58127815 0.36126000 0.48407409 0.00004036 -0.00000272 -0.00004567
0.54661906 0.21180637 0.49446499 -0.00003654 -0.00000651 -0.00000796
0.57880539 0.41360000 0.48216406 0.00002992 -0.00000560 -0.00005251
0.56695002 0.04545455 0.50745225 0.00001345 -0.00005485 -0.00001751
0.45410636 0.46524546 0.49942860 0.00003114 -0.00000168 0.00000155
0.44219726 0.50526184 0.48072314 0.00001881 -0.00000084 -0.00004121
0.45368090 0.12131274 0.49546316 0.00003532 -0.00000419 -0.00000868
0.54751724 0.74394906 0.50779045 -0.00003647 -0.00000007 0.00001365
0.45116544 0.13994455 0.51049316 0.00003115 -0.00000906 0.00001962
0.44012636 0.90512276 0.47984588 0.00001961 0.00000294 -0.00005118
0.58370090 0.18910637 0.48666769 0.00004845 -0.00000202 -0.00003808
0.55693090 0.84816641 0.51831681 -0.00002320 0.00000294 0.00004180
0.58816451 0.90990084 0.49786133 0.00006688 -0.00000178 -0.00000046
0.45399454 0.54244363 0.50199950 0.00003167 -0.00000211 0.00000356
0.41703454 0.83558726 0.51370132 -0.00004246 0.00000386 0.00004448
0.54591817 0.82611364 0.49914864 -0.00003924 0.00000149 0.00000022
0.41272819 0.47777364 0.50621766 -0.00005956 -0.00000464 0.00001930
0.43136632 0.38475639 0.52086771 -0.00000269 -0.00000610 0.00005203
0.56517267 0.35752091 0.52085042 -0.00000657 -0.00000728 0.00004986
0.54800820 0.80931914 0.49064222 -0.00003819 0.00000176 -0.00001817
0.57350087 0.52323180 0.47955772 0.00001718 -0.00000155 -0.00005586
0.57618457 0.88106000 0.51887411 0.00001943 0.00000635 0.00005345
0.42278543 0.35947999 0.51832038 -0.00003086 -0.00000442 0.00005009
0.42485815 0.91036731 0.48017225 -0.00002221 0.00000219 -0.00005918
0.44361544 0.38130364 0.51803774 0.00002272 -0.00000553 0.00003840
0.55477178 0.30743366 0.48258227 -0.00002334 -0.00000634 -0.00003520
0.45271090 0.14916728 0.50726408 0.00003245 -0.00000744 0.00001187
0.58585721 0.89053911 0.49003768 0.00005736 -0.00000043 -0.00002937
0.43207178 0.39369273 0.52090228 -0.00000154 -0.00000375 0.00005199
0.57311451 0.59217542 0.52004230 0.00001285 -0.00000303 0.00005087
0.55118454 0.19441363 0.48580137 -0.00003321 -0.00000394 -0.00002701
0.55268365 0.69211274 0.51528496 -0.00002837 -0.00000174 0.00002935
0.41200545 0.73956996 0.49629226 -0.00006206 -0.00000112 -0.00001080
0.42280999 0.76282001 0.48118678 -0.00002309 0.00000349 -0.00005435
0.43420362 0.10437456 0.51912040 0.00000303 -0.00000966 0.00005263
0.54797727 0.41683364 0.49071133 -0.00003639 -0.00000605 -0.00001346
0.41480181 0.89931363 0.48884043 -0.00005801 0.00000816 -0.00003557
0.55191541 0.59037089 0.48504406 -0.00003559 -0.00000639 -0.00002522
0.45408636 0.79142362 0.49989316 0.00003103 0.00000099 0.00000162
0.55164361 0.72687364 0.51423317 -0.00003153 0.00000335 0.00002737
0.56890994 0.53890365 0.47902587 0.00000304 -0.00000134 -0.00005494
0.44327635 0.36784363 0.48128131 0.00002150 -0.00000218 -0.00003958
0.41296270 0.18378274 0.49262863 -0.00005858 -0.00000307 -0.00002330
0.43475908 0.37437910 0.52083403 0.00000857 -0.00000166 0.00005000
0.57895726 0.08467728 0.48226953 0.00003534 -0.00000935 -0.00005740
0.43916544 0.79560095 0.47955680 0.00001324 0.00000301 -0.00004765
0.56631726 0.44710365 0.52090681 -0.00000346 -0.00000286 0.00005107
0.42367545 0.87782913 0.48075858 -0.00002302 0.00000173 -0.00005607
0.42762545 0.56393361 0.47927859 -0.00001286 -0.00000266 -0.00005736
0.44603997 0.44755092 0.51643503 0.00002676 -0.00000091 0.00003137
0.58708179 0.28316274 0.49285683 0.00005723 -0.00000459 -0.00002059
0.45350999 0.52950180 0.50489682 0.00003082 0.00000078 0.00000849
0.41434452 0.08173547 0.48954496 -0.00006427 -0.00000564 -0.00003468
0.43126088 0.85929912 0.52090859 -0.00000572 0.00000319 0.00005075
0.41865087 0.60904998 0.48412409 -0.00004038 0.00000255 -0.00004666
0.56813812 0.14325275 0.47902587 0.00000318 -0.00000256 -0.00005679
0.41555181 0.28740817 0.51188129 -0.00004775 -0.00000269 0.00003837
0.56980997 0.42024454 0.52074134 0.00000368 -0.00000354 0.00005366
0.57626450 0.74885911 0.51881862 0.00002091 -0.00000060 0.00005096
0.43857363 0.42722636 0.47937950 0.00001179 -0.00000112 -0.00004780
0.45321178 0.46037543 0.50577861 0.00003055 -0.00000139 0.00001120
0.41255182 0.20646729 0.50553137 -0.00005994 -0.00000859 0.00002118
0.43336636 0.69949907 0.47902587 0.00000392 -0.00000095 -0.00005311
0.41348544 0.83139908 0.49146679 -0.00006041 0.00000714 -0.00002350
0.45243907 0.33690819 0.50807136 0.00003266 -0.00000555 0.00001434
0.42869091 0.09381091 0.47902587 -0.00001211 -0.00000792 -0.00006162
0.42126182 0.69096726 0.48211405 -0.00003145 0.00000356 -0.00005170
0.56709725 0.92986995 0.51666766 0.00000167 0.00000042 0.00005354
0.54907638 0.06920091 0.48858133 -0.00004871 -0.00001107 -0.00002817
0.57583725 0.33696547 0.48051041 0.00001870 -0.00000736 -0.00005465
0.41938180 0.90593272 0.48348588 -0.00004369 0.00000632 -0.00005235
0.41346273 0.92948270 0.49136859 -0.00006754 0.00000383 -0.00003071
0.43930089 0.90176272 0.51868039 -0.00000069 0.00000320 0.00004746
0.58780998 0.09969183 0.49530223 0.00006699 -0.00000399 -0.00000917
0.41492090 0.34406272 0.48866314 -0.00005224 -0.00000157 -0.00003346
0.55381000 0.93124992 0.51629859 -0.00001714 0.00000115 0.00005384
0.58813089 0.33705363 0.49761772 0.00006044 -0.00000840 -0.00000581
0.41308999 0.43467820 0.50710225 -0.00005791 -0.00000382 0.00002378
0.41331545 0.40319455 0.49184409 -0.00006201 -0.00000511 -0.00002371
0.44887272 0.45185634 0.48580500 0.00003357 -0.00000138 -0.00002268
0.56337911 0.91384268 0.47902587 -0.00000794 -0.00000280 -0.00006012
0.56542540 0.95454538 0.48938045 0.00000798 0.00005954 0.00008530
0.55619270 0.47720182 0.51795769 -0.00002248 -0.00000011 0.00003679
0.41529453 0.38588545 0.51145679 -0.00004991 -0.00000541 0.00003625
0.41185090 0.53707999 0.49814406 -0.00006411 -0.00000433 -0.00000730
0.54907906 0.33790365 0.51085043 -0.00003187 -0.00000366 0.00002087
0.54589176 0.91149545 0.50009680 -0.00004419 0.00000081 0.00000410
0.55595362 0.57137001 0.51774770 -0.00002420 -0.00000193 0.00003524
0.58803636 0.81392723 0.49693772 0.00006133 0.00000124 -0.00000995
0.58084726 0.51858181 0.51587957 0.00003755 -0.00000413 0.00004413
0.55410635 0.41396090 0.51646775 -0.00002903 -0.00000594 0.00003261
0.45226908 0.70768821 0.50842047 0.00002990 0.00000117 0.00001377
0.42153180 0.64514095 0.51759040 -0.00002949 0.00000450 0.00004887
0.55326724 0.04545455 0.50969678 -0.00002649 -0.00006230 0.00001241
0.54954088 0.06166818 0.48783588 -0.00004168 0.00001124 -0.00003683
0.43865269 0.51213640 0.52017862 0.00001241 -0.00000704 0.00004615
0.41219816 0.19921727 0.49551317 -0.00006053 -0.00000801 -0.00001307
0.55971545 0.60896546 0.47990224 -0.00001885 -0.00000430 -0.00004722
0.54587996 0.92198360 0.49994317 -0.00004810 -0.00000621 0.00000578
0.58795452 0.36690909 0.49634954 0.00005973 -0.00000295 -0.00000924
0.42812634 0.63080907 0.47912771 -0.00001356 -0.00000116 -0.00005426
0.45229089 0.22213274 0.50837952 0.00003291 -0.00000653 0.00001343
0.57587093 0.04545455 0.49221134 -0.00005149 -0.00006741 0.00004176
0.45374182 0.94992268 0.50370318 0.00003769 -0.00000463 -0.00000049
0.45124361 0.85350180 0.51034588 0.00002817 0.00000404 0.00001830
0.55122632 0.88510001 0.51374865 -0.00003858 -0.00000033 0.00002614
0.58814722 0.24131091 0.50198954 0.00006027 -0.00000663 0.00000666
0.45412725 0.52309275 0.50023407 0.00003124 -0.00000112 -0.00000095
0.41351452 0.73046911 0.50815958 -0.00005732 0.00000018 0.00002495
0.58026183 0.17689455 0.51636952 0.00003733 -0.00000686 0.00004608
0.45086452 0.68547547 0.48849949 0.00003294 -0.00000018 -0.00001731
0.54621542 0.74798363 0.50339592 -0.00003692 -0.00000072 0.00000875
0.43156272 0.34790727 0.52087682 -0.00000327 -0.00000855 0.00005399
0.54592448 0.51689911 0.49837041 -0.00003727 -0.00000261 0.00000113
0.58453995 0.24955820 0.51173586 0.00004664 -0.00000430 0.00003500
0.45260271 0.26172182 0.49186045 0.00003168 -0.00000356 -0.00001307
0.58227086 0.69261181 0.48505771 0.00004285 -0.00000426 -0.00004314
0.54639274 0.61997730 0.49534592 -0.00003711 -0.00000227 -0.00000530
0.58604449 0.06958365 0.50923228 0.00007350 -0.00000758 0.00002733
0.54688090 0.25512639 0.49344772 -0.00003475 -0.00000480 -0.00000943
0.54698902 0.22069272 0.49302864 -0.00003645 -0.00000613 -0.00001079
0.44767180 0.34879273 0.51491952 0.00002905 -0.00000551 0.00002856
0.54595089 0.63101542 0.50090498 -0.00003680 -0.00000211 0.00000282
0.56385541 0.15612637 0.47902587 -0.00000273 -0.00000640 -0.00005426
0.41986999 0.71823186 0.51639682 -0.00003641 0.00000169 0.00004489
0.54704177 0.36903182 0.49282315 -0.00003558 -0.00000590 -0.00001249
0.41568270 0.88519269 0.48753771 -0.00005434 -0.00000209 -0.00004000
0.41321179 0.05383456 0.50756133 -0.00007413 0.00001937 0.00001565
0.58042270 0.33605999 0.51621950 0.00003856 -0.00000429 0.00004341
0.45230725 0.75213182 0.49126136 0.00003259 0.00000182 -0.00001145
0.43059361 0.71544725 0.52082956 -0.00000253 0.00000175 0.00005319
0.54632270 0.92209643 0.49548408 -0.00004765 -0.00000755 -0.00001203
0.42124271 0.69508362 0.51742136 -0.00002961 0.00000533 0.00005090
0.45398635 0.31777364 0.50204951 0.00003333 -0.00000452 0.00000280
0.55272633 0.81439364 0.48420405 -0.00003557 0.00000359 -0.00003288
0.41591454 0.83151275 0.51239949 -0.00004773 0.00000746 0.00004005
0.45407817 0.47660637 0.49824953 0.00003138 -0.00000069 -0.00000198
0.45117271 0.18743366 0.48895499 0.00003180 -0.00000508 -0.00001832
0.55020177 0.21986184 0.48699406 -0.00003382 -0.00000630 -0.00002416
0.55043453 0.05815909 0.51282859 -0.00003457 0.00002601 0.00004756
0.55552912 0.73025638 0.51750040 -0.00002508 0.00000276 0.00003466
0.45310727 0.95454538 0.50264138 0.00002049 0.00003601 0.00000834
0.58473814 0.08926819 0.48811316 0.00005937 -0.00001440 -0.00003667
0.56591821 0.31262180 0.47902587 -0.00000190 -0.00000354 -0.00005285
0.57729363 0.23913546 0.51834863 0.00002691 -0.00000664 0.00005015
0.57804364 0.89737999 0.48162588 0.00003169 -0.00000046 -0.00005536
0.45295182 0.21419364 0.49292955 0.00003328 -0.00000740 -0.00001043
0.42191815 0.34982181 0.51781493 -0.00002999 -0.00000511 0.00005189
0.45357543 0.94109458 0.50458586 0.00004668 -0.00000250 0.00000301
0.54643273 0.31070274 0.49518767 -0.00003477 -0.00000676 -0.00000566
0.44533545 0.87174183 0.51690590 0.00002762 -0.00000116 0.00003108
0.56222272 0.67577732 0.47914407 -0.00001173 0.00000184 -0.00005135
0.58823365 0.18998729 0.50018042 0.00006241 -0.00000626 0.00000024
0.55568087 0.89273453 0.48191860 -0.00002879 0.00000193 -0.00004348
0.54594177 0.29067001 0.49886319 -0.00003476 -0.00000580 -0.00000165
0.55528724 0.86941087 0.48220590 -0.00003008 0.00000150 -0.00004067
0.42506817 0.59714633 0.48006865 -0.00001655 -0.00000389 -0.00005624
0.54590720 0.34160364 0.50031316 -0.00003476 -0.00000495 0.00000087
0.45026907 0.54615277 0.51189041 0.00002980 -0.00000142 0.00002071
0.41684455 0.87213725 0.48599681 -0.00005091 0.00000480 -0.00004194
0.58225453 0.41725183 0.51451951 0.00004044 -0.00000313 0.00004005
0.41198179 0.51532906 0.50306863 -0.00006198 -0.00000139 0.00001214
0.55738175 0.65766090 0.48097864 -0.00001924 0.00000185 -0.00004238
0.54938811 0.07875001 0.48814318 -0.00004610 -0.00000246 -0.00002634
0.41334999 0.36102998 0.50774950 -0.00005611 -0.00000288 0.00003219
0.54676634 0.53491271 0.49379954 -0.00003621 -0.00000241 -0.00000854
0.57280362 0.16783182 0.52012497 0.00001320 -0.00000710 0.00005392
0.44162452 0.53136003 0.48044953 0.00001464 -0.00000135 -0.00004287
0.56023180 0.82503271 0.51977682 -0.00001813 0.00000221 0.00004507
0.44752273 0.45706365 0.51505768 0.00002930 -0.00000169 0.00002585
0.44209453 0.29586092 0.51882678 0.00002012 -0.00000600 0.00003925
0.55196452 0.45204729 0.51460683 -0.00003102 -0.00000153 0.00002700
0.43953362 0.69660914 0.51989043 0.00001518 0.00000447 0.00004346
0.42086089 0.12240545 0.48240682 -0.00003416 -0.00000146 -0.00005289
0.57363909 0.40177089 0.51990318 0.00001550 -0.00000248 0.00005202
0.42558545 0.36854184 0.47989589 -0.00001638 -0.00000162 -0.00005581
0.41269636 0.65014547 0.49357864 -0.00006126 0.00000214 -0.00001843
0.41575545 0.21706545 0.48742953 -0.00005248 -0.00001092 -0.00003777
0.44210452 0.88027269 0.48071405 0.00001832 0.00000507 -0.00004236
0.58818632 0.86602634 0.49802318 0.00006348 0.00000450 -0.00000302
0.56956452 0.48188365 0.52076679 0.00000370 -0.00000241 0.00005110
0.58815271 0.84711367 0.49777681 0.00006111 0.00000329 -0.00000741
0.43176997 0.20602545 0.52088767 0.00000169 -0.00000710 0.00005401
0.58149177 0.06697001 0.48428589 0.00005117 -0.00001896 -0.00005330
0.57178092 0.16134183 0.52039587 0.00001145 -0.00000508 0.00005327
0.41353181 0.51883906 0.49118772 -0.00005834 -0.00000068 -0.00002900
0.42734000 0.85964000 0.47936499 -0.00001309 0.00000217 -0.00005689
0.43408090 0.57521003 0.52090406 0.00000377 -0.00000147 0.00005008
0.54591548 0.48824999 0.49859047 -0.00003439 -0.00000176 -0.00000026
0.42243183 0.19870090 0.51811409 -0.00002933 -0.00000900 0.00004819
0.58582908 0.67014182 0.48998132 0.00005306 -0.00000249 -0.00003039
0.45304999 0.58449727 0.49324951 0.00003229 -0.00000070 -0.00001104
0.54807180 0.49415636 0.50909132 -0.00003304 -0.00000198 0.00001474
0.45107996 0.64167362 0.48879954 0.00003260 -0.00000013 -0.00001592
0.55844271 0.54860550 0.48045406 -0.00001640 -0.00000072 -0.00004467
0.45343545 0.41037455 0.49451405 0.00003359 -0.00000435 -0.00000697
0.45316818 0.08751636 0.49363589 0.00004056 -0.00000667 -0.00001154
0.44735909 0.68519723 0.48430496 0.00002871 -0.00000313 -0.00002839
0.58822817 0.44032547 0.50059408 0.00006044 -0.00000094 0.00000281
0.57574362 0.43814275 0.51905048 0.00002281 -0.00000122 0.00005057
0.44197726 0.16757274 0.51887947 0.00002186 -0.00000717 0.00004027
0.58425909 0.49569455 0.51219678 0.00004455 -0.00000451 0.00003572
0.57388002 0.65737545 0.51983857 0.00001665 -0.00000190 0.00005050
0.44727001 0.16703728 0.51529312 0.00002919 -0.00000608 0.00002980
0.41934273 0.06350365 0.51603407 -0.00002505 -0.00000999 0.00005940
0.41811633 0.72163904 0.51493955 -0.00004043 -0.00000045 0.00004386
0.44579181 0.77918363 0.51660496 0.00002534 0.00000090 0.00003067
0.58007270 0.81430995 0.51652044 0.00003672 0.00000682 0.00004373
0.45397907 0.41965091 0.50209224 0.00003386 -0.00000269 0.00000637
0.44500178 0.09152818 0.51715404 0.00001119 -0.00000411 0.00004485
0.41185725 0.22864637 0.49806318 -0.00006349 -0.00000250 -0.00000364
0.41238362 0.68473727 0.49479315 -0.00006181 -0.00000024 -0.00001752
0.45304361 0.10177000 0.49322951 0.00003804 -0.00000206 -0.00001184
0.44833091 0.76791817 0.48526767 0.00003185 -0.00000044 -0.00002373
0.45118180 0.23366545 0.51046222 0.00003227 -0.00000575 0.00001710
0.45402727 0.20604455 0.50180501 0.00003242 -0.00000734 0.00000104
0.44368091 0.34100270 0.51799405 0.00002479 -0.00000525 0.00003664
0.44441998 0.53094727 0.51754588 0.00002577 -0.00000084 0.00003349
0.56117815 0.19709545 0.47945952 -0.00001634 -0.00000445 -0.00005032
0.41212907 0.48439816 0.50385678 -0.00006301 -0.00000313 0.00001095
0.58614451 0.48249909 0.49046591 0.00005353 -0.00000112 -0.00002833
0.55418634 0.52982360 0.48295498 -0.00002536 -0.00000073 -0.00003702
0.41884270 0.32244727 0.48392680 -0.00003655 -0.00001019 -0.00004719
0.42029542 0.07680272 0.48277134 -0.00004340 -0.00000263 -0.00005704
0.55221272 0.18142092 0.51489311 -0.00002938 -0.00000729 0.00003013
0.42200363 0.86281270 0.48158589 -0.00003134 0.00000267 -0.00005228
0.41747272 0.59813362 0.51421046 -0.00004306 0.00000233 0.00004385
0.54688454 0.26936454 0.50621229 -0.00003536 -0.00000481 0.00000930
0.45186454 0.72772276 0.49036041 0.00003196 0.00000104 -0.00001407
0.41499361 0.47029820 0.51102859 -0.00005235 -0.00000230 0.00003129
0.43615362 0.86971539 0.47902587 0.00000670 0.00000401 -0.00005229
0.44667000 0.20880911 0.48362136 0.00003036 -0.00000897 -0.00002827
0.43429452 0.40931821 0.47902587 0.00001156 -0.00000482 -0.00005180
0.41379726 0.41871274 0.49077407 -0.00005973 -0.00000165 -0.00002662
0.58610547 0.16408546 0.49054226 0.00005736 -0.00000972 -0.00002514
0.57855183 0.85113633 0.51752132 0.00003222 0.00000292 0.00004712
0.56893003 0.08202000 0.47902587 0.00000578 0.00000118 -0.00006616
0.54660726 0.69577724 0.50511140 -0.00003548 -0.00000282 0.00001053
0.57898903 0.67813545 0.48229313 0.00003222 -0.00000233 -0.00004819
0.42072907 0.82358909 0.51711041 -0.00003480 0.00000818 0.00004848
0.56167907 0.36557090 0.47930863 -0.00001512 -0.00000456 -0.00004966
0.56172448 0.54395998 0.52025318 -0.00001359 -0.00000186 0.00004493
0.58793181 0.57476091 0.50328588 0.00005497 -0.00000264 0.00001205
0.55314910 0.61171550 0.48376587 -0.00003308 -0.00000125 -0.00003110
0.54629087 0.27330455 0.50372499 -0.00003541 -0.00000646 0.00000651
0.57849365 0.61559999 0.51755953 0.00003073 -0.00000438 0.00004589
0.42993909 0.58849728 0.52073592 -0.00000539 -0.00000165 0.00005390
0.55328363 0.84516001 0.48366773 -0.00003140 0.00000190 -0.00003499
0.57070273 0.85966724 0.52066135 0.00000598 0.00000136 0.00005425
0.42109635 0.95454538 0.49456862 0.00004473 0.00006270 0.00001992
0.55187815 0.64827633 0.48508319 -0.00003579 -0.00000336 -0.00002578
0.41570726 0.44215181 0.48750135 -0.00005648 0.00000007 -0.00003183
0.41182089 0.07137182 0.49790773 -0.00007377 -0.00000617 -0.00000550
0.43731543 0.94608998 0.51550496 -0.00002523 -0.00002947 0.00005430
0.44385725 0.20084547 0.48160136 0.00002188 -0.00000947 -0.00003670
0.45394364 0.60518456 0.50230497 0.00003185 -0.00000087 0.00000524
0.58177817 0.57865000 0.48457041 0.00004545 -0.00000445 -0.00003885
0.56999820 0.20497547 0.47902587 0.00000527 -0.00000717 -0.00005418
0.45412180 0.94120270 0.49926496 0.00004240 -0.00000067 0.00000257
0.58768541 0.83651996 0.49483499 0.00005947 0.00000326 -0.00001982
0.55138087 0.45912817 0.51392865 -0.00003197 -0.00000389 0.00002577
0.54920632 0.49799088 0.51118320 -0.00003130 -0.00000333 0.00001897
0.55803543 0.50034636 0.48065591 -0.00001998 0.00000030 -0.00004212
0.56781632 0.19893275 0.47902587 -0.00000094 -0.00000635 -0.00005295
0.58536267 0.43916818 0.51040775 0.00005146 -0.00000452 0.00003119
0.54586726 0.12494455 0.49976769 -0.00004002 -0.00000975 -0.00000077
0.56835544 0.33398455 0.47902587 0.00000277 -0.00000904 -0.00005454
0.56809908 0.42707363 0.52091771 -0.00000089 -0.00000675 0.00005258
0.54987907 0.76178998 0.48747131 -0.00003801 -0.00000150 -0.00002214
0.55791545 0.34692726 0.51888955 -0.00002054 -0.00000454 0.00004022
0.58612454 0.53005636 0.49050313 0.00005552 -0.00000415 -0.00002400
0.44663909 0.74437636 0.51587862 0.00002699 0.00000130 0.00002752
0.43954816 0.43336093 0.47967228 0.00001140 -0.00000158 -0.00004542
0.45248541 0.07374636 0.49158132 0.00004438 -0.00000220 -0.00002091
0.41277361 0.34599909 0.50631410 -0.00006104 -0.00000633 0.00002264
0.54788816 0.81231725 0.50871319 -0.00003798 0.00000393 0.00001459
0.44715181 0.90210813 0.48409861 0.00002930 0.00000244 -0.00003366
0.44603178 0.36219275 0.48313498 0.00002748 -0.00000331 -0.00003298
0.41225818 0.31415272 0.50424594 -0.00006201 -0.00000311 0.00001414
0.41847178 0.64690274 0.51523501 -0.00004076 0.00000425 0.00004218
0.55141360 0.05295729 0.51396501 -0.00002959 -0.00000076 0.00005569
0.55785632 0.13314910 0.48074406 -0.00002107 -0.00000704 -0.00004648
0.58617085 0.71764636 0.49067411 0.00005702 -0.00000093 -0.00002538
0.42013818 0.11531729 0.48293319 -0.00003858 -0.00000175 -0.00005051
0.58649182 0.31413272 0.49132681 0.00005612 -0.00000631 -0.00002380
0.55846637 0.64512455 0.48044226 -0.00002237 -0.00000114 -0.00004436
0.43334728 0.48027638 0.52096862 0.00000260 -0.00000496 0.00004978
0.54917544 0.24656819 0.48851046 -0.00003447 -0.00000357 -0.00002006
0.41917908 0.51633185 0.48362136 -0.00004319 -0.00000169 -0.00004380
0.42378637 0.43687454 0.48070315 -0.00002085 -0.00000087 -0.00005519
0.44676000 0.58668548 0.48371136 0.00003254 -0.00000189 -0.00002804
0.54625177 0.29435548 0.50355500 -0.00003352 -0.00000414 0.00000637
0.55686998 0.71608633 0.48123223 -0.00002234 0.00000146 -0.00004235
0.41375726 0.54068911 0.50876319 -0.00005487 -0.00000360 0.00002876
0.41181633 0.11703730 0.50112683 -0.00006642 -0.00000217 0.00000774
0.55983728 0.61807275 0.47986588 -0.00001877 -0.00000215 -0.00004789
0.57875359 0.85626632 0.51738769 0.00003244 -0.00000051 0.00004740
0.58366179 0.90564543 0.48661318 0.00005124 -0.00000149 -0.00004352
0.41709906 0.10595365 0.51377678 -0.00005041 -0.00000452 0.00003922
0.42154816 0.50096726 0.48188317 -0.00002692 0.00000108 -0.00005315
0.56814909 0.95454538 0.50791222 -0.00000215 0.00004889 -0.00006957
0.56933725 0.56004906 0.47902587 0.00000088 -0.00000004 -0.00005491
0.45090362 0.35839546 0.51098406 0.00003134 -0.00000221 0.00002051
0.41254270 0.36058909 0.49417499 -0.00006004 -0.00000261 -0.00002174
0.41709182 0.75753635 0.48574132 -0.00004896 0.00000437 -0.00003878
0.44025272 0.86527455 0.51964593 0.00001816 0.00000336 0.00004237
0.54931271 0.16882546 0.48830861 -0.00003639 -0.00000698 -0.00002127
0.41178724 0.14564183 0.50073588 -0.00006437 -0.00000508 0.00000149
0.57749820 0.66633821 0.51821411 0.00002692 0.00000031 0.00004632
0.55892545 0.44718546 0.51928133 -0.00001931 -0.00000271 0.00004264
0.56507450 0.39047456 0.47902587 -0.00000614 -0.00000373 -0.00005341
0.41303000 0.81572270 0.49247774 -0.00006097 0.00000701 -0.00002493
0.55336362 0.06433273 0.48359495 -0.00003219 -0.00001308 -0.00005032
0.44835091 0.49478361 0.51432133 0.00002818 -0.00000559 0.00002535
0.44140637 0.21599637 0.51913315 0.00001938 -0.00000628 0.00004125
0.44991636 0.64173359 0.51235038 0.00002996 0.00000074 0.00002111
0.41187999 0.74630994 0.50199133 -0.00006193 0.00000239 0.00000949
0.55766183 0.64195091 0.51874226 -0.00002396 -0.00000068 0.00003928
0.54644454 0.07819273 0.49501500 -0.00004721 -0.00000293 -0.00001046
0.54618001 0.62623179 0.50324041 -0.00003690 -0.00000219 0.00000637
0.57470179 0.66051632 0.47997317 0.00001487 -0.00000140 -0.00005450
0.44333181 0.37320727 0.51822317 0.00002223 -0.00000524 0.00003905
0.44806543 0.32785362 0.48500499 0.00003262 -0.00000566 -0.00002520
0.58229905 0.40890637 0.51447767 0.00004300 -0.00000181 0.00003906
0.41674453 0.24601638 0.48610133 -0.00004879 -0.00000539 -0.00003786
0.56905639 0.08954820 0.51805866 -0.00000773 -0.00000523 0.00005487
0.55542547 0.16814183 0.48210502 -0.00002808 -0.00000800 -0.00003715
0.45107815 0.27570638 0.51065588 0.00003211 -0.00000437 0.00001873
0.56574363 0.32643273 0.52087861 -0.00000564 -0.00000870 0.00004894
0.58327091 0.17811000 0.51338589 0.00004612 -0.00000634 0.00003767
0.58656180 0.84306365 0.50815678 0.00005475 0.00000074 0.00002665
0.43909273 0.17492819 0.52000773 0.00001547 -0.00000779 0.00004535
0.43241635 0.42544183 0.47902587 0.00000064 0.00000376 -0.00005299
0.54741818 0.72629637 0.49195316 -0.00003685 0.00000222 -0.00001677
0.55031633 0.50948179 0.48678771 -0.00003181 -0.00000416 -0.00002426
0.56663722 0.51221269 0.47902587 -0.00000365 -0.00000287 -0.00005132
0.43346816 0.31351274 0.52096772 0.00000212 -0.00000533 0.00005194
0.41222546 0.11484728 0.49540681 -0.00006550 -0.00000283 -0.00001595
0.56572723 0.85073274 0.47902587 -0.00000378 0.00000267 -0.00005662
0.42681363 0.70025092 0.52005410 -0.00001210 0.00000340 0.00005441
0.41290635 0.73469907 0.49276134 -0.00005996 -0.00000090 -0.00002215
0.54733723 0.50043821 0.50751680 -0.00003414 -0.00000387 0.00001126
0.58064723 0.42117727 0.51601225 0.00003577 -0.00000384 0.00004333
0.42911452 0.18099728 0.52056772 -0.00000985 -0.00000445 0.00005368
0.45234179 0.88250637 0.50828499 0.00003311 0.00000158 0.00001253
0.45409361 0.71375996 0.49937952 0.00003045 0.00000110 0.00000009
0.55113816 0.50353998 0.51374406 -0.00002629 -0.00000551 0.00002741
0.58550453 0.72488087 0.48932043 0.00005246 0.00000048 -0.00003350
0.57978541 0.71209908 0.51670861 0.00003496 0.00000055 0.00004487
0.55651724 0.92653358 0.51690590 -0.00000172 -0.00000379 0.00005270
0.41567090 0.23043001 0.48755500 -0.00005162 -0.00000496 -0.00003613
0.55076635 0.04545455 0.49034861 -0.00001035 -0.00005478 -0.00003024
0.54754907 0.69277906 0.50786769 -0.00003473 -0.00000194 0.00001428
0.41917908 0.34487274 0.51582313 -0.00003771 -0.00000406 0.00004828
0.41879272 0.23995546 0.48397774 -0.00004014 -0.00000416 -0.00004636
0.57464272 0.61049271 0.47995496 0.00001996 -0.00000281 -0.00005388
0.57138455 0.61980635 0.52050132 0.00000697 -0.00000386 0.00005238
0.56419998 0.53168368 0.52077043 -0.00000795 -0.00000416 0.00004784
0.42962089 0.14003181 0.47902587 -0.00000821 -0.00000734 -0.00005665
0.42665637 0.82178271 0.51999497 -0.00001648 0.00001055 0.00005305
0.44891360 0.22744818 0.51365405 0.00003076 -0.00000484 0.00002455
0.54607272 0.28461456 0.49729767 -0.00003511 -0.00000676 -0.00000337
0.56743997 0.25407818 0.47902587 0.00000020 -0.00000343 -0.00005240
0.41805363 0.75114995 0.48474407 -0.00004193 0.00000044 -0.00004647
0.45016816 0.77261913 0.48752952 0.00003159 0.00000148 -0.00001922
0.41908544 0.81894821 0.51574498 -0.00003931 0.00000818 0.00004642
0.43592817 0.75587642 0.47902587 0.00000912 0.00000404 -0.00005085
0.58722633 0.37419817 0.49333131 0.00005716 -0.00000699 -0.00002077
0.41585180 0.87001634 0.51232678 -0.00004737 0.00000079 0.00003988
0.55936360 0.57744360 0.51944679 -0.00001736 -0.00000233 0.00004190
0.45410272 0.39719728 0.49873134 0.00003353 -0.00000336 -0.00000176
0.44908088 0.19249547 0.48601410 0.00003275 -0.00000644 -0.00002207
0.54595453 0.64196819 0.49871954 -0.00003696 -0.00000015 -0.00000211
0.55937088 0.95454538 0.51059955 0.00001809 0.00004541 -0.00001531
0.44837180 0.94358808 0.51429862 0.00002477 -0.00002459 0.00004051
0.45109454 0.25923365 0.51062590 0.00003302 -0.00000582 0.00001612
0.44612634 0.53899634 0.51635766 0.00002767 -0.00000130 0.00002993
0.56304091 0.35519817 0.47902587 -0.00001275 -0.00000320 -0.00005195
0.45377088 0.29360002 0.50334042 0.00003236 -0.00000683 0.00000594
0.44754815 0.69901091 0.51503408 0.00002799 0.00000246 0.00002660
0.57987905 0.28776455 0.51664770 0.00003267 -0.00000545 0.00004671
0.56323546 0.83170271 0.47902587 -0.00000881 0.00000359 -0.00005409
0.55699271 0.48844910 0.48112407 -0.00002163 -0.00000262 -0.00003987
0.54589272 0.44299999 0.50011045 -0.00003698 -0.00000330 0.00000316
0.44847271 0.39860728 0.51417589 0.00003022 -0.00000264 0.00002627
0.57190633 0.45245180 0.47913408 0.00001084 0.00000164 -0.00005707
0.57397634 0.11235365 0.51969224 0.00000795 -0.00001280 0.00005938
0.58794457 0.51421273 0.50353223 0.00005863 -0.00000376 0.00000735
0.58604729 0.90948278 0.49042407 0.00005894 -0.00000391 -0.00003171
0.58617002 0.19697091 0.49067318 0.00005386 -0.00000681 -0.00002878
0.54711908 0.18957818 0.50679678 -0.00003549 -0.00000465 0.00001274
0.55987543 0.70486635 0.47985408 -0.00001617 -0.00000409 -0.00004882
0.54650998 0.35665908 0.49489042 -0.00003612 -0.00000410 -0.00000671
0.57066995 0.15686455 0.52066135 0.00000791 -0.00000360 0.00005317
0.41569090 0.84413999 0.51211137 -0.00004661 0.00000548 0.00003870
0.58666545 0.58459359 0.49168044 0.00005429 -0.00000480 -0.00002775
0.56103086 0.52106363 0.47943407 -0.00001495 -0.00000271 -0.00004879
0.45320362 0.93290454 0.49354681 0.00004114 0.00001162 -0.00001451
0.45406544 0.17352727 0.50136584 0.00003245 -0.00000652 0.00000176
0.44161180 0.32341546 0.48047498 0.00001674 -0.00000506 -0.00004226
0.58527637 0.56670910 0.51056862 0.00004727 0.00000024 0.00003230
0.57388270 0.08839092 0.51797497 -0.00000274 -0.00000991 0.00005831
0.41428089 0.11830183 0.48970136 -0.00005861 -0.00000501 -0.00003597
0.55022997 0.42445546 0.51258951 -0.00003342 -0.00000601 0.00002141
0.55183363 0.83561450 0.51445502 -0.00002915 0.00000261 0.00003274
0.41807815 0.78542542 0.51490861 -0.00004268 -0.00000024 0.00004164
0.44342819 0.43136725 0.51816046 0.00002302 -0.00000231 0.00003738
0.41190362 0.22017728 0.50231951 -0.00006214 -0.00000571 0.00000752
0.57480091 0.21856546 0.51946956 0.00001913 -0.00000752 0.00005237
0.41270635 0.45469913 0.49354044 -0.00006028 0.00000149 -0.00002227
0.41220090 0.30240816 0.50399321 -0.00006238 -0.00000925 0.00001238
0.58757907 0.28138909 0.50514042 0.00005891 -0.00000383 0.00001431
0.55649453 0.38630909 0.51806229 -0.00002676 -0.00000486 0.00003743
0.43563181 0.89083821 0.51946312 0.00000435 0.00001054 0.00004930
0.58383638 0.39291364 0.48685586 0.00005050 -0.00000569 -0.00003577
0.43665725 0.81296545 0.52063775 0.00001147 0.00000213 0.00004798
0.43121362 0.80391729 0.52086043 -0.00000266 0.00000181 0.00005241
0.44591817 0.48799816 0.48301587 0.00002887 -0.00000129 -0.00003070
0.57575363 0.14649275 0.48047042 0.00001665 -0.00000633 -0.00005768
0.45382544 0.66735727 0.50301319 0.00003116 0.00000002 0.00000383
0.54898179 0.14819910 0.48879769 -0.00003947 -0.00000473 -0.00001701
0.43938270 0.12545456 0.51995409 0.00001732 -0.00000737 0.00004799
0.57054269 0.87412727 0.47902587 0.00000595 -0.00000017 -0.00006164
0.41553816 0.93578088 0.51188952 -0.00005376 0.00001451 0.00003642
0.55068547 0.25271454 0.51311952 -0.00002895 -0.00000782 0.00002491
0.45274088 0.13023455 0.50717497 0.00003383 -0.00000644 0.00001275
0.44701818 0.05691547 0.48396680 0.00003641 0.00002158 -0.00005181
0.41351908 0.78725183 0.49139315 -0.00005904 0.00000051 -0.00002586
0.43558815 0.84952635 0.47902587 0.00001006 0.00000532 -0.00005150
0.45150727 0.92373544 0.50991857 0.00003820 0.00000080 0.00001722
0.54621178 0.88066089 0.49604681 -0.00004075 -0.00000014 -0.00000898
0.41639090 0.94212639 0.48648405 -0.00006383 -0.00002895 -0.00004533
0.41245544 0.56444365 0.49451318 -0.00006310 -0.00000288 -0.00001107
0.56075454 0.26428092 0.51997501 -0.00001806 -0.00000652 0.00004493
0.57559270 0.05161545 0.48051405 0.00003428 0.00000352 -0.00006352
0.43560362 0.11609909 0.51996046 0.00000649 -0.00001355 0.00005169
0.43594816 0.44950092 0.52071136 0.00000817 -0.00000059 0.00004817
0.43255273 0.67791092 0.47902587 0.00000709 -0.00000346 -0.00005423
0.41864818 0.19351000 0.51538134 -0.00004103 -0.00000816 0.00004136
0.44704726 0.40649909 0.51549953 0.00002923 -0.00000164 0.00002940
0.45341361 0.92597008 0.50522679 0.00004196 -0.00000297 0.00000900
0.55788726 0.11547909 0.48072863 -0.00002172 -0.00000192 -0.00004731
0.45408455 0.33064181 0.50000226 0.00003298 -0.00000479 0.00000032
0.41217363 0.15790272 0.50387681 -0.00006329 -0.00000770 0.00001135
0.41403633 0.70576817 0.49024317 -0.00005929 0.00000096 -0.00002879
0.54611361 0.31474909 0.49681136 -0.00003399 -0.00000835 -0.00000517
0.44727179 0.93966264 0.51539040 0.00001634 -0.00000585 0.00004224
0.45410907 0.51104814 0.49871406 0.00003198 -0.00000532 -0.00000273
0.42677817 0.89073634 0.47953495 -0.00001008 0.00000191 -0.00006094
0.45212361 0.76375270 0.49088678 0.00003158 0.00000066 -0.00001305
0.42713088 0.36722001 0.52016318 -0.00001451 -0.00000355 0.00005408
0.58784544 0.62626272 0.49556315 0.00005927 -0.00000228 -0.00000827
0.42814633 0.90098542 0.47912136 -0.00000817 0.00000334 -0.00006152
0.55173725 0.64008182 0.48522863 -0.00003390 -0.00000183 -0.00002798
0.58487183 0.26712546 0.48829862 0.00004936 -0.00000683 -0.00003339
0.56855905 0.63248360 0.47902587 0.00000074 -0.00000200 -0.00005318
0.54727995 0.81852913 0.49225861 -0.00003827 0.00000263 -0.00001467
0.58780634 0.27719817 0.49527952 0.00005956 -0.00000271 -0.00001314
0.58787906 0.91442364 0.49580404 0.00006782 -0.00000452 -0.00000728
0.56185269 0.62119818 0.52027953 -0.00001407 -0.00000518 0.00004670
0.45359817 0.18953092 0.49504587 0.00003167 -0.00000572 -0.00000736
0.42406452 0.46633092 0.48053405 -0.00001982 -0.00000533 -0.00005419
0.42853090 0.54750276 0.47902587 -0.00001114 -0.00000290 -0.00005678
0.57634366 0.36315998 0.51878411 0.00002260 -0.00000740 0.00005080
0.55149359 0.23028818 0.51405865 -0.00003110 -0.00000451 0.00002633
0.45217907 0.49640182 0.49096498 0.00003206 -0.00000276 -0.00001254
0.55271089 0.67457271 0.48421952 -0.00003480 -0.00000047 -0.00002807
0.58293724 0.33064729 0.48571861 0.00004364 -0.00000926 -0.00004007
0.45140725 0.48588184 0.51015043 0.00002850 -0.00000328 0.00001793
0.44281545 0.47565818 0.48101500 0.00001991 -0.00000189 -0.00003960
0.58703995 0.10432728 0.49271950 0.00006436 -0.00000844 -0.00001952
0.58358181 0.50194639 0.48644954 0.00004560 -0.00000522 -0.00003653
0.45232362 0.61897361 0.49129316 0.00003280 -0.00000049 -0.00001361
0.41199908 0.20488273 0.49637225 -0.00006061 -0.00000967 -0.00001340
0.58560270 0.95166636 0.48947409 0.00003489 0.00003272 -0.00003552
0.41828635 0.47040999 0.51509678 -0.00003792 -0.00000276 0.00004674
0.41538817 0.66442084 0.51161045 -0.00005043 -0.00000377 0.00003592
0.43006817 0.84120637 0.47902587 -0.00000476 0.00000716 -0.00005503
0.41332817 0.71778637 0.50769496 -0.00005768 0.00000177 0.00002439
0.57573271 0.82026184 0.51905495 0.00002407 0.00000394 0.00004815
0.57635814 0.45385092 0.51877683 0.00002514 -0.00000189 0.00004892
0.43588725 0.82528090 0.52074772 0.00001021 0.00000655 0.00004812
0.55504906 0.08622909 0.48237681 -0.00002901 -0.00000776 -0.00004739
0.58676630 0.53528273 0.49187404 0.00005690 -0.00000390 -0.00002246
0.43099543 0.37032092 0.52084953 -0.00000155 -0.00000188 0.00005322
0.56961089 0.75083274 0.47902587 0.00000435 -0.00000001 -0.00005623
0.42479455 0.75738817 0.51928955 -0.00001856 0.00000367 0.00005205
0.58427906 0.76542997 0.51207501 0.00004485 0.00000225 0.00003848
0.41228542 0.69066906 0.50436682 -0.00006268 0.00000291 0.00001407
0.44513816 0.31545091 0.48250496 0.00002396 -0.00000634 -0.00003517
0.56177813 0.12025364 0.52025771 -0.00001072 -0.00000950 0.00005256
0.42898273 0.93782270 0.47902587 -0.00000911 -0.00000308 -0.00006339
0.41326362 0.13449454 0.50753409 -0.00005843 -0.00000703 0.00002703
0.41709906 0.75725543 0.51377589 -0.00004603 0.00000045 0.00003938
0.54602456 0.67331547 0.49787953 -0.00003557 -0.00000184 -0.00000418
0.42293090 0.95454538 0.51476771 -0.00001614 0.00004287 0.00003103
0.54667270 0.91497266 0.49423042 -0.00004497 -0.00000157 -0.00001659
0.41648364 0.42557636 0.51306039 -0.00004560 0.00000028 0.00004279
0.44676724 0.08179182 0.51577586 0.00002089 -0.00000378 0.00004090
0.41764724 0.48750547 0.48505130 -0.00004488 -0.00000003 -0.00004199
0.58502001 0.69724274 0.48850590 0.00005271 -0.00000184 -0.00003387
0.43604907 0.58308548 0.47902587 0.00000432 -0.00000118 -0.00005142
0.57180905 0.45735547 0.47910500 0.00001036 0.00000177 -0.00005685
0.58817178 0.77720457 0.49791226 0.00006115 0.00000273 -0.00000521
0.41389999 0.13315274 0.49054682 -0.00005760 -0.00000448 -0.00003077
0.45050633 0.60859638 0.48800045 0.00003476 -0.00000236 -0.00001824
0.54960364 0.09073910 0.48787773 -0.00003973 -0.00000708 -0.00002918
0.44270816 0.46571639 0.51857227 0.00002073 -0.00000032 0.00003678
0.41755909 0.68092090 0.51431042 -0.00004534 -0.00000194 0.00004080
0.45381361 0.91859543 0.49642226 0.00003808 0.00000230 -0.00000386
0.41322181 0.32497910 0.50743043 -0.00005866 -0.00000410 0.00002415
0.42552909 0.79246819 0.51956773 -0.00001758 0.00000249 0.00005261
0.58057630 0.08997638 0.51607770 0.00003189 -0.00000995 0.00005364
0.54964089 0.06566001 0.51181501 -0.00005078 -0.00001934 0.00001868
0.44627181 0.40183273 0.51621950 0.00002784 -0.00000284 0.00003173
0.45374724 0.85357630 0.50348133 0.00003009 0.00000476 0.00000629
0.42267179 0.40611726 0.48125592 -0.00002850 -0.00000494 -0.00005288
0.57917267 0.79190546 0.48242226 0.00003178 -0.00000291 -0.00005240
0.58451360 0.10927910 0.48779953 0.00005482 -0.00000202 -0.00003818
0.45093635 0.06837002 0.48857406 0.00004042 -0.00001332 -0.00003534
0.41385001 0.67472088 0.50899589 -0.00005701 -0.00000312 0.00003082
0.42847908 0.09554909 0.51848769 0.00001059 -0.00001140 0.00005658
0.43400633 0.82724905 0.47902587 0.00000333 0.00000377 -0.00005349
0.41278908 0.26947182 0.50635225 -0.00005942 -0.00000442 0.00002294
0.54618365 0.69871002 0.49615496 -0.00003723 -0.00000401 -0.00000507
0.57798094 0.09908272 0.48158228 0.00002933 -0.00000554 -0.00005994
0.58662361 0.15634365 0.50797224 0.00005539 -0.00000664 0.00002550
0.42475635 0.05716364 0.48020226 -0.00002495 0.00003518 -0.00007495
0.42458451 0.68832636 0.48030862 -0.00001880 0.00000375 -0.00005517
0.42381635 0.93549001 0.51626498 0.00000584 0.00002091 0.00005634
0.45407090 0.12990548 0.49827954 0.00003465 -0.00000572 -0.00000213
0.44860634 0.50470817 0.51404953 0.00002766 -0.00000435 0.00002478
0.57744998 0.15762363 0.51824588 0.00003184 -0.00000526 0.00004964
0.45409179 0.47343090 0.50100589 0.00003102 -0.00000093 0.00000315
0.54754180 0.29385817 0.50784951 -0.00003271 -0.00000449 0.00001415
0.44729543 0.34096998 0.51526862 0.00002900 -0.00000558 0.00002852
0.57891268 0.42672819 0.51728320 0.00003160 -0.00000487 0.00004614
0.55346817 0.39058545 0.51593679 -0.00002893 -0.00000323 0.00003179
0.41187179 0.35135183 0.49789134 -0.00006384 -0.00000441 -0.00000589
0.44357362 0.33554000 0.51806498 0.00002402 -0.00000492 0.00003711
0.41270453 0.72413999 0.50614136 -0.00006078 0.00000026 0.00001715
0.54600543 0.86739635 0.49811041 -0.00004039 0.00000074 -0.00000242
0.58416998 0.10195000 0.48732042 0.00005470 -0.00000650 -0.00003939
0.45285180 0.30697545 0.50684589 0.00003268 -0.00000494 0.00001113
0.41309634 0.92018092 0.50716591 -0.00006908 0.00000355 0.00002150
0.57485181 0.67986000 0.48003316 0.00001988 -0.00000262 -0.00005310
0.57197177 0.64600819 0.47915316 0.00001096 0.00000294 -0.00005664
0.44343999 0.82111001 0.48136136 0.00002206 0.00000020 -0.00003869
0.54717726 0.77976722 0.49248677 -0.00003959 -0.00000200 -0.00001301
0.41902906 0.49304819 0.51576865 -0.00003811 -0.00000327 0.00004552
0.57284635 0.63674635 0.47941586 0.00001405 0.00000011 -0.00005541
0.54608184 0.40159455 0.50268316 -0.00003684 -0.00000163 0.00000478
0.56183726 0.50252813 0.47925952 -0.00001498 -0.00000343 -0.00004774
0.54931724 0.27411819 0.51124316 -0.00003223 -0.00000532 0.00001888
0.58615088 0.18972728 0.50892675 0.00005293 -0.00000613 0.00002797
0.58561724 0.23338729 0.50992769 0.00005139 -0.00000698 0.00003149
0.54654545 0.53394455 0.50492316 -0.00003570 -0.00000431 0.00000882
0.54747182 0.66872638 0.49183312 -0.00003764 -0.00000104 -0.00001099
0.45411909 0.93512642 0.49916223 0.00004194 0.00001368 -0.00000237
0.42165270 0.92390364 0.48180953 -0.00004092 0.00000414 -0.00005423
0.42989179 0.45021453 0.52072591 -0.00001075 0.00000201 0.00005073
0.41305456 0.75152177 0.49242318 -0.00005932 0.00000703 -0.00002400
0.45219815 0.33560640 0.49103859 0.00003542 -0.00000649 -0.00001247
0.58743453 0.50676543 0.49385312 0.00005924 -0.00000372 -0.00001300
0.43130818 0.05533364 0.51560771 0.00000859 0.00003200 0.00005191
0.55551362 0.74104178 0.48204041 -0.00002707 0.00000087 -0.00003806
0.58312547 0.72860366 0.51357496 0.00004389 0.00000004 0.00003880
0.44544089 0.19159818 0.48271862 0.00002771 -0.00000540 -0.00003198
0.42744362 0.92531550 0.47931227 -0.00001714 0.00000341 -0.00006337
0.56943363 0.79460359 0.52078044 0.00000002 -0.00000282 0.00005240
0.56484181 0.41389728 0.52083403 -0.00000844 -0.00000562 0.00004918
0.54591453 0.54571819 0.50040317 -0.00003535 -0.00000200 0.00000062
0.56705272 0.15179273 0.47902587 -0.00000324 -0.00000305 -0.00005653
0.54608905 0.42854548 0.50278139 -0.00003662 -0.00000606 0.00000382
0.58151364 0.90370274 0.51520771 0.00003922 0.00000101 0.00004095
0.54606456 0.89178544 0.50244313 -0.00004084 0.00000359 0.00001063
0.56809086 0.37700543 0.52091861 0.00000034 -0.00000654 0.00005039
0.44224542 0.28718635 0.51875955 0.00002101 -0.00000822 0.00003850
0.58154184 0.29957727 0.51518041 0.00003708 -0.00000414 0.00004302
0.41220272 0.75749362 0.49549496 -0.00006169 0.00000810 -0.00001609
0.57477731 0.47342998 0.47999680 0.00001766 -0.00000488 -0.00005396
0.42094362 0.25725546 0.48234677 -0.00003530 -0.00000863 -0.00004808
0.54589361 0.94444358 0.49911681 -0.00005177 -0.00002509 0.00001294
0.45290634 0.43941182 0.49277863 0.00003286 0.00000008 -0.00001089
0.57130724 0.80761820 0.52052134 0.00000641 0.00000781 0.00005116
0.56573176 0.61135727 0.47902587 -0.00000450 -0.00000364 -0.00005344
0.55844909 0.55637997 0.51910043 -0.00001931 0.00000019 0.00003945
0.55538547 0.07648639 0.48208866 -0.00002919 0.00000245 -0.00005166
0.44057178 0.33062911 0.51950407 0.00001846 -0.00000523 0.00004307
0.58668453 0.44634274 0.50779134 0.00005392 -0.00000180 0.00002563
0.45356181 0.84096181 0.50459683 0.00003020 0.00000461 0.00000918
0.41527182 0.62004638 0.51141864 -0.00005231 -0.00000162 0.00003292
0.57815814 0.84555274 0.48170680 0.00003009 0.00000121 -0.00005179
0.58517820 0.52364725 0.48871222 0.00005211 -0.00000652 -0.00003026
0.55724090 0.46725094 0.48101407 -0.00001980 -0.00000098 -0.00004165
0.41224271 0.26416638 0.49533951 -0.00006348 -0.00000841 -0.00001247
0.57768452 0.52686453 0.51811773 0.00002868 -0.00000498 0.00004799
0.42794818 0.64542907 0.47918135 -0.00001085 0.00000232 -0.00005610
0.54639357 0.95309734 0.49533951 -0.00004503 0.00003506 0.00000376
0.54605997 0.33685726 0.50238585 -0.00003486 -0.00000334 0.00000378
0.41624635 0.86594361 0.48670498 -0.00005086 0.00000098 -0.00003976
0.44392452 0.86546093 0.51783317 0.00002514 0.00000277 0.00003443
0.56580269 0.47494453 0.47902587 -0.00000390 -0.00000468 -0.00005203
0.55048722 0.87207544 0.51288950 -0.00003365 0.00000098 0.00002768
0.41192001 0.38615727 0.49731043 -0.00006283 -0.00000280 -0.00001088
0.54588544 0.36652544 0.50000864 -0.00003536 -0.00000782 0.00000031
0.54909003 0.17300090 0.48863772 -0.00003729 -0.00000674 -0.00001937
0.55036730 0.11738365 0.48675042 -0.00003716 -0.00000715 -0.00002807
0.41226363 0.23425546 0.50426954 -0.00006135 -0.00000268 0.00001432
0.41559181 0.04633001 0.48766044 -0.00003178 -0.00004376 -0.00003795
0.54663634 0.59331912 0.50523859 -0.00003534 -0.00000461 0.00000746
0.57164633 0.67037362 0.47905591 0.00000869 -0.00000186 -0.00005562
0.58594364 0.62688816 0.50931591 0.00005355 -0.00000592 0.00002630
0.42164543 0.55434543 0.48183408 -0.00002816 -0.00000091 -0.00005445
0.58270091 0.77119458 0.51410502 0.00004162 0.00000195 0.00004118
0.58224726 0.75878811 0.48503408 0.00004155 -0.00000541 -0.00004327
0.56376272 0.93676275 0.47902587 -0.00001204 -0.00000019 -0.00006022
0.58755273 0.82498270 0.49439955 0.00006043 0.00000125 -0.00001691
0.41958454 0.90365821 0.51615953 -0.00002463 0.00001068 0.00005057
0.57893723 0.34521639 0.51726770 0.00002970 -0.00000554 0.00004714
0.45408088 0.32338271 0.49834955 0.00003322 -0.00000562 -0.00000214
0.56682181 0.75727272 0.52093136 -0.00000250 -0.00000158 0.00005085
0.42869633 0.57532001 0.52048224 -0.00000720 -0.00000302 0.00005466
0.41363543 0.93387091 0.49095678 -0.00006671 0.00001652 -0.00003118
0.54769725 0.41072729 0.50823683 -0.00003401 -0.00000200 0.00001371
0.41579637 0.17416000 0.48737043 -0.00004938 -0.00000579 -0.00003970
0.58823907 0.17266817 0.49979773 0.00006317 -0.00000484 0.00000239
0.45371360 0.57651818 0.50368685 0.00003200 -0.00000020 0.00000644
0.43686998 0.31404090 0.47902587 0.00000755 -0.00000734 -0.00005024
0.42836270 0.56191093 0.52041405 -0.00001009 -0.00000002 0.00005406
0.44951454 0.50328094 0.48654678 0.00003211 -0.00000334 -0.00002101
0.58097363 0.04545455 0.50104135 -0.00001912 -0.00005910 -0.00002405
0.57830638 0.80225641 0.51768225 0.00003038 0.00000599 0.00004602
0.43557179 0.70030910 0.52075046 0.00000675 0.00000285 0.00004900
0.54593635 0.73474455 0.49892950 -0.00003633 0.00000213 -0.00000001
0.57358998 0.94071633 0.51589042 -0.00002015 -0.00000016 0.00005915
0.57286638 0.19951092 0.52010769 0.00001494 -0.00000392 0.00005280
0.56477088 0.38001910 0.52083135 -0.00000841 -0.00000569 0.00004817
0.41668999 0.15946545 0.48615769 -0.00004758 -0.00000722 -0.00004060
0.57749361 0.46896458 0.51823223 0.00002542 -0.00000286 0.00004719
0.54602456 0.30066454 0.49787953 -0.00003473 -0.00000283 -0.00000358
0.44301632 0.42611182 0.51841772 0.00002159 -0.00000236 0.00003852
0.41183907 0.50882822 0.49759680 -0.00006275 -0.00000203 -0.00000719
0.57202178 0.80001724 0.52033222 0.00000979 0.00000266 0.00005078
0.44027543 0.50599271 0.51965863 0.00001490 -0.00000398 0.00004325
0.42248818 0.69728184 0.48134592 -0.00002515 0.00000227 -0.00005316
0.56901634 0.34725910 0.52082318 0.00000254 -0.00000365 0.00005265
0.44728819 0.05919546 0.51537496 0.00002200 0.00000869 0.00005460
0.54852998 0.19120184 0.48948228 -0.00003683 -0.00000594 -0.00001761
0.41773725 0.93990088 0.51451766 -0.00003050 -0.00000149 0.00005052
0.58116454 0.34428635 0.48396224 0.00003896 -0.00000497 -0.00004681
0.45408908 0.56607819 0.49967769 0.00003270 -0.00000173 0.00000142
0.56960541 0.17369092 0.52079588 0.00000038 -0.00000632 0.00005500
0.58173543 0.35312819 0.51500136 0.00003691 -0.00000694 0.00004322
0.55172092 0.40356910 0.48524591 -0.00003641 -0.00000210 -0.00002650
0.45177725 0.41048911 0.50934315 0.00003262 -0.00000310 0.00001529
0.43074179 0.57174182 0.52083683 -0.00000421 -0.00000134 0.00005302
0.55321819 0.91381365 0.51572949 -0.00002501 0.00000818 0.00003679
0.44495907 0.62230545 0.51715320 0.00002401 -0.00000124 0.00003360
0.55144817 0.08682001 0.51400679 -0.00003812 0.00000560 0.00002890
0.42446545 0.74678272 0.51916409 -0.00002005 0.00000150 0.00005123
0.58745456 0.60980999 0.50550956 0.00005686 -0.00000165 0.00002195
0.42727271 0.33234635 0.47938588 -0.00000855 -0.00001064 -0.00006043
0.55455178 0.67136091 0.51683772 -0.00002549 -0.00000054 0.00003362
0.42459726 0.11536547 0.51925677 -0.00001204 -0.00000891 0.00005763
0.56147540 0.40891272 0.47937045 -0.00001450 -0.00000353 -0.00004979
0.54716903 0.44966090 0.49250591 -0.00003544 -0.00000241 -0.00001254
0.54806817 0.32307455 0.49050954 -0.00003545 -0.00000578 -0.00001604
