0.440277 -0.024594 0.029110
0.122987 0.022426 -0.033895
0.270347 -0.062004 -0.023325
0.442993 0.037368 0.034909
0.286694 0.058516 -0.020665
0.410829 -0.050946 0.021471
0.274772 0.105017 -0.004329
0.218201 -0.056380 -0.040116
0.470833 0.000020 0.040142
0.181771 0.016531 -0.054068
0.487317 0.030024 0.060136
0.101360 -0.014372 -0.021231
0.327579 -0.029193 -0.027414
0.341701 0.006383 -0.023783
0.180541 -0.017281 -0.043097
0.268422 0.018552 -0.032690
0.388115 -0.004229 0.003580
0.286713 0.055180 -0.032114
0.406929 0.026511 0.003736
-0.442697 -0.030516 -0.050012
0.233093 0.077138 -0.020721
0.390533 -0.078255 0.022563
-0.413984 -0.046185 -0.051274
0.339061 0.100540 -0.000382
0.286693 0.069269 -0.028691
0.434519 0.007633 0.012469
-0.421698 0.000399 -0.061525
0.426070 -0.011302 0.019856
0.240169 0.050453 -0.041886
0.047693 -0.003950 -0.023620
0.423584 -0.075060 0.028472
-0.468978 -0.008751 -0.048916
0.350994 -0.029360 -0.019026
0.115904 -0.008380 -0.025454
0.013306 0.016819 -0.011339
0.264479 -0.090428 -0.023240
-0.086102 0.000992 -0.015989
-0.230842 -0.026764 -0.034086
-0.459462 -0.046915 -0.050518
-0.306598 0.029996 -0.044860
-0.050444 -0.030100 -0.020362
0.303982 0.085400 -0.008157
-0.378963 0.038056 -0.063306
-0.283041 -0.018387 -0.052217
0.342118 0.014313 -0.023657
-0.210886 -0.007040 -0.031238
0.379970 0.089193 0.011722
0.216635 0.032219 -0.038326
-0.290140 0.021324 -0.053266
-0.097717 -0.013381 -0.026687
0.251065 -0.053184 -0.028853
-0.080823 -0.023625 -0.015554
0.253721 0.016110 -0.036218
0.269973 0.028352 -0.041638
0.138038 0.010561 -0.047104
-0.398433 -0.010023 -0.062495
0.290779 0.006719 -0.039214
0.422645 0.079722 0.039745
0.170921 0.030299 -0.037803
0.278863 0.078413 -0.027135
0.319995 -0.028741 -0.029851
0.456573 0.009252 0.023144
-0.336945 0.028188 -0.048850
-0.458729 -0.022507 -0.049344
-0.474147 -0.030382 -0.048701
-0.330722 -0.021386 -0.048064
0.485047 -0.029724 0.047941
-0.010439 0.025812 -0.021388
0.456846 -0.028743 0.040310
-0.483728 0.032165 -0.048302
0.207940 0.034790 -0.037615
-0.252748 -0.005393 -0.047660
-0.442465 -0.019547 -0.060660
0.132840 -0.005251 -0.032588
-0.005442 -0.002755 -0.011323
0.447916 -0.002794 0.017829
0.368667 0.064959 0.006907
0.287782 0.031251 -0.037522
0.137517 -0.019278 -0.035273
-0.260526 -0.008236 -0.048840
0.376964 0.034491 0.003161
0.368909 -0.066949 -0.003174
0.338885 0.054336 -0.006733
-0.119533 0.025785 -0.029073
-0.045457 0.026577 -0.022596
-0.342364 -0.043016 -0.056645
0.164892 -0.030735 -0.037569
-0.017238 -0.009203 -0.011644
0.191598 0.024703 -0.040757
-0.181348 -0.024293 -0.027152
0.467238 0.037021 0.050102
0.331483 0.107016 0.010670
-0.038987 -0.008383 -0.012557
-0.230934 0.020606 -0.034099
0.277666 -0.089551 -0.011315
-0.175199 -0.017600 -0.026320
0.238417 0.086636 -0.016482
-0.330371 -0.042486 -0.048919
-0.206085 -0.027913 -0.030558
-0.204031 -0.036896 -0.035544
0.278559 0.019833 -0.029618
0.482832 0.032281 0.058163
-0.190668 -0.017255 -0.028435
0.342589 -0.044761 -0.007781
0.361164 0.028053 -0.004587
0.314010 -0.043809 -0.027897
-0.361489 -0.011386 -0.062469
-0.294633 -0.021934 -0.053930
0.274494 -0.078076 -0.027854
0.361555 0.007298 -0.017767
0.434174 0.042446 0.031739
0.378146 -0.086953 0.020412
-0.198888 0.023572 -0.029567
0.392883 0.016095 0.005929
-0.418756 0.046397 -0.054600
-0.354484 0.006694 -0.061753
0.286493 -0.023023 -0.039708
0.377687 0.022453 0.000826
-0.274302 -0.009864 -0.040332
0.066717 0.009065 -0.014726
0.090501 -0.021706 -0.018676
0.278081 0.103075 -0.015345
0.294957 -0.058251 -0.018782
0.263723 -0.018857 -0.034087
0.460671 0.007592 0.035383
-0.190646 0.036303 -0.036735
-0.245144 -0.005309 -0.036140
-0.385186 0.026007 -0.063047
-0.217825 -0.013060 -0.042368
0.421483 -0.027262 0.010463
0.413374 0.019663 0.005223
0.206001 -0.031430 -0.049460
0.168048 -0.027830 -0.038673
0.397855 0.072197 0.013003
-0.328860 0.042419 -0.050303
-0.203796 -0.005032 -0.030243
-0.027561 0.005786 -0.021863
-0.424211 0.029178 -0.061421
0.207336 -0.049268 -0.042679
-0.441969 -0.037153 -0.050042
0.432325 -0.038066 0.018186
0.252959 -0.087302 -0.015203
0.345257 -0.038112 -0.008398
0.187860 -0.004500 -0.047353
0.214335 0.048302 -0.043209
-0.324616 -0.035585 -0.058140
0.429172 -0.016467 0.022323
0.385877 -0.049468 0.010284
-0.284620 0.022293 -0.052451
0.062619 -0.015766 -0.025236
0.385229 0.047916 -0.000977
-0.471911 0.002028 -0.048794
0.175818 -0.021561 -0.051939
0.378061 -0.082401 0.018261
0.293454 0.043660 -0.033309
-0.259382 0.003816 -0.038194
-0.237738 -0.011808 -0.035071
0.105890 -0.013566 -0.034282
0.254063 0.016087 -0.046810
0.396893 -0.041520 0.013246
0.472678 -0.025501 0.049100
-0.295104 -0.035037 -0.054000
-0.306614 -0.040978 -0.044863
0.026865 -0.021509 -0.011526
-0.201187 0.025328 -0.039915
0.396386 -0.093790 0.023386
0.444491 0.057638 0.044177
0.126955 0.012783 -0.041777
0.441947 0.062278 0.044575
0.198406 0.006316 -0.045605
0.460144 -0.015735 0.026735
0.474940 -0.021783 0.049099
0.298167 0.028570 -0.023677
0.183954 0.021582 -0.052255
0.348818 -0.105118 0.005507
0.337160 0.108800 0.003008
0.241028 -0.064624 -0.025818
-0.065843 0.022844 -0.023916
0.333950 0.097013 0.006614
0.460880 0.026538 0.031378
0.098432 0.003133 -0.032281
0.365887 -0.078560 -0.000042
0.329869 -0.023248 -0.027369
0.150504 0.008500 -0.042749
-0.180623 -0.017042 -0.036947
0.374244 -0.049604 -0.005071
-0.344609 -0.020866 -0.060633
0.408671 -0.002976 0.010297
0.318412 -0.087612 -0.002993
0.399416 0.020057 -0.000980
-0.442407 0.015577 -0.060662
0.470066 -0.002440 0.029039
0.269186 0.065142 -0.022836
-0.142954 -0.034193 -0.030776
0.329874 0.026116 -0.014068
-0.411892 -0.007721 -0.061934
-0.150971 -0.010876 -0.023185
0.140571 -0.009894 -0.048462
-0.042651 -0.010871 -0.022414
0.033708 -0.020986 -0.022496
0.305782 0.077070 -0.021936
0.339084 -0.031903 -0.011278
0.371794 0.045986 0.003738
0.386364 -0.014942 -0.007752
0.363519 -0.105814 0.015302
-0.154011 -0.033320 -0.033301
0.294920 -0.000104 -0.024661
0.489581 -0.027443 0.053042
0.336497 -0.042741 -0.021051
0.281633 0.081470 -0.014548
-0.204072 0.033868 -0.030281
-0.283163 0.002863 -0.041594
-0.053247 -0.024863 -0.013380
-0.426366 -0.042704 -0.061331
0.174374 -0.006189 -0.057240
-0.460353 -0.046797 -0.059562
-0.361600 0.008360 -0.051749
-0.314956 0.009617 -0.046002
0.435710 0.055039 0.027220
0.356881 0.024374 -0.017889
-0.258072 -0.024788 -0.048468
-0.434638 -0.032786 -0.060986
0.353177 0.072549 -0.007760
0.353015 0.087920 0.009481
0.290542 0.027172 -0.037896
-0.161401 -0.018389 -0.024535
-0.285643 -0.006849 -0.041947
-0.049574 0.028408 -0.022862
-0.364786 -0.002642 -0.052102
0.293046 -0.015448 -0.025228
0.278704 -0.046347 -0.035896
0.027515 -0.019452 -0.022179
0.006132 0.023249 -0.021464
0.299678 -0.057890 -0.028348
-0.162458 0.025617 -0.024672
0.184129 -0.042122 -0.044551
-0.074606 0.021172 -0.024601
-0.012559 -0.010831 -0.011517
0.222349 -0.079184 -0.020169
0.317801 0.020064 -0.017727
0.409604 0.087121 0.026530
0.238683 -0.012686 -0.039082
-0.423383 -0.037564 -0.061455
0.183361 -0.000355 -0.048159
0.365985 -0.034862 -0.011808
0.313300 -0.073945 -0.009914
-0.261953 0.021029 -0.049057
-0.422700 -0.046571 -0.055033
-0.345905 0.025127 -0.060794
0.283890 -0.072639 -0.017899
0.009518 0.007141 -0.011300
0.478430 -0.000065 0.046379
-0.310913 0.014327 -0.056237
-0.093663 -0.032012 -0.020498
0.215345 0.074298 -0.031469
0.386456 0.042278 0.008937
-0.472983 -0.000367 -0.059388
0.396133 -0.014235 0.006979
0.381622 0.083450 0.020524
0.418694 0.013952 0.017077
0.378559 -0.056493 -0.001727
0.068672 -0.002356 -0.026114
-0.228787 -0.030623 -0.033792
-0.479802 0.029047 -0.059104
-0.098460 0.023991 -0.017240
0.420636 0.039865 0.023330
-0.367687 0.025399 -0.052423
-0.463766 0.046348 -0.050385
0.215327 -0.016157 -0.052200
0.264768 0.017538 -0.044833
0.211469 0.005685 -0.044044
0.200183 -0.021312 -0.042398
0.283684 -0.066413 -0.019453
0.381960 -0.095469 0.026263
-0.134623 -0.025939 -0.030840
-0.411495 0.013130 -0.061950
0.332654 0.020695 -0.026525
0.251899 -0.096656 -0.014140
0.282767 0.089066 -0.021322
0.349107 0.107498 0.006793
0.194497 0.046654 -0.032616
0.330595 -0.106084 -0.000704
0.204107 -0.039429 -0.046350
0.388036 0.093898 0.017928
0.241389 -0.055943 -0.029507
-0.218798 0.001924 -0.042515
0.124517 -0.008930 -0.029055
0.362201 0.042636 -0.011524
0.459199 0.016760 0.037170
0.080968 -0.012750 -0.016851
0.266086 0.102475 -0.014584
0.342691 0.041016 -0.008648
-0.407885 -0.045916 -0.057776
0.374800 0.039741 -0.007142
-0.055041 -0.018844 -0.023216
-0.214010 0.037337 -0.032051
0.238637 -0.083579 -0.017812
0.393022 0.007999 -0.006349
-0.364519 -0.028703 -0.052072
0.277172 -0.018388 -0.030039
-0.460489 0.019511 -0.049270
0.446003 -0.040605 0.027405
-0.240889 0.008661 -0.035526
-0.355864 -0.019887 -0.061894
0.267102 -0.001287 -0.046389
0.331999 -0.036982 -0.013355
-0.343655 -0.040825 -0.049698
-0.173071 0.018625 -0.026045
-0.447214 0.025546 -0.049823
0.226694 0.081680 -0.029615
0.229134 -0.033982 -0.046867
0.245014 0.064105 -0.025921
-0.215677 0.022263 -0.042047
-0.216481 -0.010493 -0.032037
-0.457514 -0.008209 -0.060033
0.198423 0.020782 -0.053159
0.304911 -0.046744 -0.029709
-0.196101 0.015577 -0.039167
0.331823 -0.074662 -0.014686
0.375299 0.028225 0.001073
-0.125120 0.022433 -0.029692
-0.221533 0.001194 -0.032757
0.322716 0.111708 0.006681
0.373123 -0.067249 -0.001414
0.276684 -0.047050 -0.025515
0.421788 -0.027605 0.021312
0.321305 -0.062359 -0.021040
0.070293 -0.023148 -0.026404
-0.398383 -0.022171 -0.062497
-0.175474 -0.031479 -0.026356
-0.467029 0.017039 -0.059637
0.293958 0.095392 -0.016179
0.330548 0.018651 -0.013864
0.474162 -0.000599 0.032275
-0.472699 0.039628 -0.059400
0.379674 0.099271 0.016245
0.362071 0.089806 0.003719
-0.284533 0.001038 -0.052438
-0.401008 -0.030819 -0.062387
-0.290052 0.018641 -0.042575
0.498268 0.009515 0.063303
-0.243875 0.001705 -0.035957
-0.313830 -0.041754 -0.055720
-0.017484 -0.020591 -0.021525
-0.341762 0.023595 -0.060280
-0.237878 -0.017964 -0.035091
0.357840 -0.060383 -0.008977
0.488446 0.019423 0.046971
0.258875 0.026265 -0.043954
0.067032 0.003090 -0.014762
0.404507 0.053451 0.019133
-0.248196 0.030103 -0.036580
0.255647 0.066558 -0.024280
0.269709 0.086691 -0.024385
-0.262430 0.010277 -0.049129
-0.488122 0.000653 -0.058758
-0.207079 0.024961 -0.030695
0.323372 -0.077905 -0.005871
-0.381378 0.019002 -0.063205
-0.445530 -0.039072 -0.049893
0.165943 -0.021921 -0.040935
0.071703 -0.013200 -0.026657
-0.443439 0.043663 -0.049981
0.293027 -0.030056 -0.036698
-0.285398 0.024136 -0.041912
0.310029 0.102893 0.002108
-0.419602 0.005410 -0.050974
0.445279 -0.057657 0.034017
0.292060 -0.034349 -0.035889
0.183464 0.047586 -0.040355
-0.460382 0.035600 -0.049275
0.308287 0.088743 -0.005495
0.269359 -0.055723 -0.024984
-0.414562 -0.003400 -0.051184
0.260339 0.088079 -0.014169
-0.402613 0.016963 -0.051682
-0.139057 0.034021 -0.031238
-0.321768 -0.040663 -0.057744
0.190139 0.029168 -0.049661
-0.137575 -0.010710 -0.031214
-0.356952 0.033481 -0.051234
-0.023093 0.004654 -0.021713
0.294976 0.059545 -0.029101
-0.231311 0.016727 -0.044411
-0.128691 -0.024814 -0.020515
0.406673 0.001065 -0.001636
0.209467 0.064352 -0.026177
-0.491454 0.007268 -0.047980
0.324976 -0.049461 -0.023162
-0.169070 0.031350 -0.025527
-0.317624 0.018132 -0.046367
0.464486 -0.036508 0.048158
0.259099 -0.087445 -0.014606
-0.406153 -0.031131 -0.051534
0.177665 0.021875 -0.041250
0.228037 -0.063428 -0.026603
0.007958 0.027516 -0.016792
-0.037180 0.028095 -0.022185
0.134627 0.001082 -0.033494
0.342886 -0.033398 -0.021054
0.348459 -0.047031 -0.005058
-0.058176 -0.014644 -0.023419
-0.001097 -0.014715 -0.021431
0.392889 0.087291 0.017288
-0.277627 -0.032010 -0.040805
-0.404647 -0.021888 -0.062236
0.386251 0.003904 0.003015
0.235783 -0.052046 -0.041878
0.428193 -0.072609 0.040628
-0.090055 0.012036 -0.025995
-0.075586 0.005510 -0.015123
0.038935 -0.024407 -0.022763
0.360661 0.000791 -0.018038
-0.143951 -0.017471 -0.022310
-0.449919 0.004652 -0.060349
0.406472 0.072308 0.028450
-0.437628 0.021682 -0.060862
0.235643 -0.023029 -0.048123
-0.177569 0.012615 -0.036523
0.364502 -0.012027 -0.016874
0.217304 -0.037946 -0.047330
0.295994 0.065605 -0.016743
0.260690 -0.034985 -0.031155
0.318598 -0.023957 -0.030784
-0.165762 -0.025855 -0.034882
-0.230985 0.011766 -0.044361
-0.016764 -0.021484 -0.011631
0.281129 -0.084108 -0.013359
0.300196 0.110778 0.000977
-0.478344 -0.039742 -0.054678
-0.319716 -0.008517 -0.057459
-0.337476 -0.037992 -0.059748
0.463104 0.002177 0.035582
0.439290 0.060110 0.042092
0.302951 0.013434 -0.022227
0.349707 -0.053522 -0.013667
0.319462 -0.101047 -0.006596
0.138805 -0.000671 -0.036067
0.400468 0.049188 0.016469
-0.348041 0.043268 -0.051654
0.339934 -0.011794 -0.024318
-0.492376 -0.021678 -0.058580
-0.260946 -0.036026 -0.048904
0.331743 0.016633 -0.026801
-0.223850 0.005626 -0.033088
0.023911 -0.015845 -0.011450
0.207641 -0.012152 -0.053951
-0.355745 -0.043609 -0.058690
-0.461577 0.001224 -0.059864
-0.043397 -0.017819 -0.022462
-0.149403 -0.012311 -0.032716
0.027392 -0.008979 -0.022173
0.461797 0.049029 0.040653
0.275082 -0.012992 -0.043971
0.393309 0.025065 -0.002558
-0.261985 0.004941 -0.049062
0.422210 0.016539 0.019194
-0.232342 -0.004053 -0.044567
0.101006 -0.008191 -0.021129
0.299003 0.103990 -0.010744
0.432384 -0.073052 0.043314
-0.073528 0.015334 -0.014954
0.363651 0.059434 -0.007029
-0.059896 0.016563 -0.023531
-0.478630 -0.018168 -0.059153
-0.354335 0.018805 -0.061738
0.330970 -0.036601 -0.024435
0.398803 0.026379 0.010720
-0.248905 0.017349 -0.036682
0.453662 -0.049181 0.035551
0.309123 -0.079963 -0.009632
-0.355454 0.018653 -0.051069
-0.460022 0.026167 -0.059929
-0.269192 -0.005138 -0.050156
-0.037426 -0.029524 -0.021998
-0.153139 0.012986 -0.023466
-0.378141 -0.034015 -0.063340
0.268498 -0.021392 -0.032667
0.042496 -0.003966 -0.023058
-0.481342 0.035361 -0.048401
-0.141356 -0.023132 -0.031694
-0.050460 0.014549 -0.022920
-0.323123 0.002766 -0.057932
-0.188209 0.036195 -0.031644
-0.107082 0.004467 -0.018120
0.037777 0.001236 -0.012151
0.208132 -0.016729 -0.053028
-0.048544 0.030016 -0.019344
0.359337 -0.041215 -0.013002
0.220834 -0.032701 -0.037647
-0.091270 0.029971 -0.016507
-0.370270 0.044089 -0.052709
-0.457593 0.036957 -0.060030
-0.207373 -0.031718 -0.030737
0.343640 0.077588 0.000659
0.332662 -0.050630 -0.009748
-0.486254 -0.024117 -0.058835
-0.213062 -0.037295 -0.038755
-0.331862 -0.022575 -0.059051
0.351024 -0.039352 -0.016601
-0.050979 -0.004869 -0.013250
0.256548 -0.092648 -0.012471
0.473436 0.015889 0.045865
-0.190802 -0.036310 -0.030083
0.389477 -0.084533 0.024945
0.090215 0.014346 -0.018621
0.092332 -0.004732 -0.019026
0.426059 -0.042663 0.016343
0.218778 -0.037248 -0.036996
0.337935 0.023801 -0.024924
0.363158 -0.099839 0.019680
-0.375862 0.005714 -0.063435
-0.379173 -0.042277 -0.063297
0.400304 -0.000879 0.007274
-0.291037 0.040745 -0.047265
0.363770 0.101376 0.010052
0.422192 -0.014606 0.018787
0.280792 0.016548 -0.028942
0.386779 -0.058056 0.001932
0.209281 0.069791 -0.026247
-0.423476 0.023956 -0.061451
-0.045444 0.008011 -0.012930
-0.246400 0.005261 -0.046696
0.291175 0.099254 -0.004275
0.044687 -0.025890 -0.017209
0.271213 0.072360 -0.020255
0.414618 -0.015592 0.004942
0.195181 0.058104 -0.037463
0.498397 -0.008136 0.063315
-0.234836 0.032934 -0.034655
0.203479 -0.056633 -0.039710
0.312276 -0.111708 0.001688
0.273905 0.031560 -0.040194
-0.352388 -0.024217 -0.050729
0.044886 0.016044 -0.012557
0.196190 -0.013409 -0.044565
-0.402525 0.045678 -0.059457
0.151728 0.008838 -0.053734
-0.485078 0.007781 -0.058884
-0.138177 0.003701 -0.021631
-0.256549 0.005157 -0.048237
-0.343032 0.028373 -0.049620
-0.044695 0.021087 -0.022546
-0.425652 -0.023103 -0.061361
-0.231463 -0.017029 -0.034174
-0.248854 -0.010754 -0.036675
0.205638 0.054208 -0.040707
0.463781 0.034806 0.036414
0.199916 0.048173 -0.032235
0.348412 -0.109458 0.014148
-0.202858 -0.022603 -0.040161
-0.459295 0.011758 -0.059959
-0.351948 0.028578 -0.061494
-0.147385 -0.008705 -0.032460
0.091362 -0.021112 -0.030383
0.201391 0.039757 -0.035488
0.390675 0.081542 0.013518
0.340337 0.030221 -0.010898
-0.416841 -0.000375 -0.061728
0.351864 -0.097040 0.013382
0.216910 0.039552 -0.046692
0.260409 0.075536 -0.019952
0.439120 0.023803 0.028415
0.264815 0.030598 -0.031404
0.185018 0.036545 -0.046678
0.340597 0.094806 -0.002655
-0.268037 0.009245 -0.039439
-0.161552 0.026159 -0.034297
-0.239109 0.018137 -0.035269
0.129254 0.002384 -0.042658
-0.299888 0.033066 -0.054706
0.030062 0.008244 -0.022309
0.270738 0.012202 -0.044977
0.405782 0.044730 0.007124
0.442464 -0.022943 0.019178
0.110696 0.020565 -0.035572
0.225207 0.068358 -0.024595
0.420967 0.009681 0.017218
0.249053 0.075011 -0.020953
-0.418501 -0.030158 -0.061659
0.423772 -0.056313 0.020616
-0.339085 -0.032896 -0.049121
-0.408568 0.045946 -0.059564
-0.360040 -0.042588 -0.051576
0.393431 0.026052 0.008350
0.081893 0.019740 -0.017028
0.349551 0.037451 -0.017606
0.227455 0.025569 -0.038122
0.417116 -0.082859 0.030258
0.459199 -0.036239 0.044700
0.023077 0.021690 -0.021952
-0.479814 0.034939 -0.059104
0.361917 -0.048068 0.000260
0.290151 0.058173 -0.030573
-0.373068 -0.037959 -0.052913
0.362867 -0.047480 -0.010135
0.406751 -0.047321 0.018746
-0.070239 0.012524 -0.014683
0.385423 -0.020839 0.003780
-0.196804 0.011647 -0.029280
0.014437 0.014691 -0.021510
0.163650 -0.012499 -0.055502
0.278862 -0.006411 -0.029526
-0.199064 0.028892 -0.039603
0.115784 0.007847 -0.037494
-0.442700 0.025905 -0.050011
-0.024122 -0.021056 -0.021747
0.427591 -0.002301 0.008191
0.466954 0.036806 0.039200
-0.347237 -0.014581 -0.050151
0.095274 -0.023652 -0.030753
0.208034 0.013198 -0.043064
0.477376 -0.025392 0.052039
-0.386878 -0.023157 -0.052337
-0.205212 -0.021878 -0.030438
0.278624 0.088564 -0.022268
-0.328443 0.034435 -0.047776
-0.351659 0.043428 -0.056585
0.239461 -0.017413 -0.038047
-0.242036 0.016200 -0.046035
0.252921 0.031902 -0.043743
-0.235551 0.024138 -0.045053
0.489627 0.027384 0.056567
0.226665 0.046256 -0.033600
-0.358371 0.041607 -0.062150
0.239250 0.039093 -0.044344
-0.452833 0.042740 -0.060228
-0.238486 -0.035434 -0.035179
0.451924 0.046286 0.043968
-0.117106 -0.023462 -0.028804
-0.111556 0.012141 -0.018577
0.144700 0.017390 -0.050675
-0.110322 0.029640 -0.018451
0.260002 0.090762 -0.023595
-0.326510 0.042315 -0.054706
0.302631 0.068258 -0.014325
-0.152449 -0.004975 -0.033102
-0.361502 -0.027313 -0.062470
-0.291439 0.007487 -0.042772
0.322206 -0.103435 0.006069
0.085671 -0.024077 -0.021870
0.309779 -0.026008 -0.020158
0.376067 0.011782 -0.000071
-0.262036 -0.033941 -0.038577
0.403679 0.087148 0.033428
0.353842 -0.108005 0.008906
-0.083296 0.025437 -0.015758
-0.437852 -0.009764 -0.050213
0.325860 -0.008532 -0.028583
-0.263787 -0.037678 -0.038830
0.265342 -0.095506 -0.010135
-0.348740 -0.022466 -0.061146
-0.124211 -0.006415 -0.029591
0.257189 -0.014566 -0.046646
-0.013242 -0.028197 -0.011535
-0.226244 0.029490 -0.043643
0.382158 -0.091508 0.024526
-0.034603 0.028251 -0.012304
0.198802 -0.061177 -0.031484
0.398975 0.027275 0.000351
0.116296 0.022722 -0.032604
0.296719 -0.079493 -0.023414
0.492783 0.002846 0.047708
0.327978 0.008043 -0.014643
-0.118833 0.016860 -0.028995
-0.438559 -0.028046 -0.050184
0.246664 -0.027455 -0.045616
0.217942 -0.057780 -0.028907
0.160427 0.020718 -0.041460
0.238169 -0.087411 -0.016153
0.265239 0.079109 -0.028430
-0.386824 0.022846 -0.052340
0.399868 -0.036305 0.002726
0.306762 0.110622 -0.005652
0.280582 -0.050626 -0.034507
0.303431 -0.037165 -0.032479
-0.430527 0.034771 -0.050519
0.027518 0.023447 -0.011564
0.283684 -0.103137 -0.003726
-0.123144 -0.002331 -0.029473
0.330911 -0.086065 0.000059
0.056866 0.007065 -0.013582
0.406347 -0.068652 0.016136
0.279580 0.006162 -0.029309
0.208061 -0.058694 -0.039002
0.190920 -0.042866 -0.044566
0.165451 -0.013078 -0.044568
0.235936 0.060186 -0.038499
0.290769 -0.089730 -0.019644
-0.397123 -0.044395 -0.062549
0.299050 0.010714 -0.023409
0.227719 -0.006482 -0.052391
0.196611 -0.035172 -0.047693
0.248930 0.011599 -0.037852
-0.447874 0.006754 -0.049796
0.324417 0.014014 -0.029021
-0.135770 0.011112 -0.030985
-0.121479 -0.033243 -0.021142
0.298258 -0.063599 -0.027299
0.348642 0.088888 -0.002605
0.390046 -0.032732 -0.002269
0.339858 0.037032 -0.021298
-0.005913 0.008327 -0.021409
0.222426 0.072802 -0.033424
-0.239973 0.036444 -0.035393
0.331000 0.062726 -0.017938
0.378832 -0.058668 0.009526
0.186905 0.030283 -0.038465
0.364318 -0.099830 0.009545
-0.291680 0.040774 -0.042812
0.396780 0.011163 -0.004003
0.070997 0.024645 -0.026531
-0.480659 0.023611 -0.048430
0.280029 0.050362 -0.034684
0.354272 -0.041198 -0.014952
0.300533 -0.093919 -0.004739
-0.409773 0.016543 -0.051383
-0.354705 0.037688 -0.061776
-0.177348 0.008461 -0.026601
-0.026750 -0.001716 -0.021835
-0.326378 -0.042309 -0.051436
-0.303418 0.018793 -0.055196
0.447269 -0.047031 0.030816
-0.202316 0.012095 -0.030039
0.270225 0.055104 -0.035603
0.260018 -0.084378 -0.026570
0.306804 -0.072601 -0.012131
-0.316629 0.035619 -0.057031
0.133445 -0.006835 -0.044643
-0.143396 -0.021832 -0.022244
0.376851 0.030118 -0.008487
-0.007196 0.005956 -0.011370
0.413272 -0.021271 0.005509
0.329558 -0.001239 -0.027463
-0.424384 -0.035784 -0.050775
0.342490 -0.044263 -0.018577
0.470649 -0.044579 0.044764
0.203407 -0.027922 -0.050700
0.382728 0.027438 -0.006562
0.416362 -0.019565 0.017187
0.334342 -0.091616 -0.006556
-0.499192 0.006456 -0.056854
0.187482 -0.039898 -0.045529
0.272381 -0.025894 -0.031102
0.141342 0.020120 -0.048875
-0.398235 0.038323 -0.051864
-0.298737 -0.013223 -0.054537
0.054687 -0.012670 -0.024377
0.339701 0.085997 -0.007354
0.498186 0.000355 0.062611
0.220421 0.001417 -0.054320
-0.239029 0.000777 -0.045579
-0.308870 -0.041534 -0.055835
0.025559 0.026237 -0.022079
0.346448 -0.050644 -0.004930
0.253288 -0.048476 -0.029488
0.480758 0.027081 0.054837
0.024079 0.012878 -0.022003
0.246683 0.041417 -0.032097
-0.247997 0.011541 -0.046939
0.396543 -0.093724 0.027387
0.260795 -0.091943 -0.012315
0.349697 -0.109282 0.010287
-0.054291 0.019650 -0.013441
0.495939 0.010517 0.050856
-0.286672 -0.021543 -0.042093
-0.454962 -0.002729 -0.060139
0.294426 0.031787 -0.024810
-0.092392 -0.002140 -0.016621
0.235519 -0.083047 -0.028770
-0.496220 -0.017679 -0.056431
0.005164 0.002295 -0.011255
0.262694 0.001065 -0.047725
0.395743 0.091948 0.020870
0.294663 -0.031941 -0.024738
-0.195923 -0.008241 -0.039141
0.387371 -0.043283 0.009553
-0.481877 0.011318 -0.059018
-0.018758 -0.003972 -0.011686
-0.305065 0.000930 -0.044651
-0.409736 -0.019808 -0.062024
0.238608 -0.042054 -0.033198
-0.148183 -0.025941 -0.022825
0.340494 -0.090489 0.005806
0.257024 0.073402 -0.031772
0.453165 0.026861 0.037247
0.311278 -0.026806 -0.032942
-0.086377 0.031690 -0.017133
0.356218 0.106471 0.019845
-0.159596 0.015643 -0.034025
-0.358856 0.011718 -0.062200
-0.311736 0.015145 -0.045562
0.413057 0.042331 0.009789
0.338726 -0.054400 -0.017410
0.428945 -0.024904 0.013341
0.314854 0.044944 -0.016719
0.366099 0.050968 -0.008026
0.235519 0.032058 -0.035713
0.324045 -0.000659 -0.015835
0.309283 0.075850 -0.010655
0.470130 0.028404 0.048606
0.382120 -0.028101 0.003963
0.240845 0.001977 -0.040855
0.302783 0.104338 0.000947
0.469291 0.040774 0.052855
0.480120 0.016046 0.039998
0.156064 -0.006706 -0.054963
0.411907 -0.031489 0.017659
0.465830 0.047702 0.042699
-0.477209 0.021547 -0.048573
0.161620 0.002514 -0.055815
0.307348 -0.084770 -0.018324
0.307494 -0.088577 -0.005765
-0.459707 -0.033383 -0.049303
0.403768 0.059981 0.021541
0.478995 0.003937 0.047107
0.323722 -0.092857 -0.009400
0.352191 0.066711 -0.009535
0.468475 0.023247 0.045563
-0.005941 -0.006381 -0.021409
-0.313510 0.026776 -0.045805
0.346331 -0.016156 -0.022380
0.409715 0.080993 0.034058
-0.134921 -0.018140 -0.030877
-0.195027 -0.029911 -0.039009
-0.256823 0.038305 -0.048278
0.304951 0.098493 -0.012083
0.178857 -0.032825 -0.037174
0.283024 0.055973 -0.022104
0.346257 0.040342 -0.018128
0.479408 0.037070 0.052208
0.310740 0.008695 -0.033165
-0.405550 0.037472 -0.062198
-0.441245 0.031813 -0.050072
0.184077 0.045937 -0.032482
0.362321 0.084691 0.011996
0.408551 0.019963 0.003113
-0.064007 0.030700 -0.020946
0.010200 0.015256 -0.021483
-0.192521 -0.013171 -0.028690
0.367512 0.091523 0.017570
0.288836 0.051325 -0.032547
0.396408 -0.045042 0.003181
-0.304219 -0.029574 -0.055307
0.356018 0.059714 0.000822
0.344210 0.095527 -0.000957
0.348867 0.071403 -0.009633
0.041706 0.006184 -0.022972
0.237044 0.088817 -0.025345
0.016370 0.021210 -0.011371
-0.280945 0.035516 -0.051908
0.262773 -0.067905 -0.023198
0.357926 0.089997 0.012634
0.338411 0.089156 0.004373
-0.153851 0.002430 -0.033280
-0.364362 0.007853 -0.062762
0.121233 -0.011478 -0.027660
0.261043 0.100433 -0.012394
-0.273263 0.016067 -0.050772
0.013038 -0.016690 -0.021496
0.278794 0.040516 -0.037237
0.179929 -0.027969 -0.049685
0.282051 -0.012318 -0.028560
0.312796 -0.078830 -0.019484
-0.459026 0.029154 -0.049331
0.475902 0.014803 0.036612
-0.193973 -0.032541 -0.028890
-0.431124 0.046944 -0.053643
-0.323564 -0.028844 -0.047159
-0.020943 -0.017949 -0.011745
-0.152778 -0.009456 -0.033144
0.251816 0.078849 -0.019053
0.167510 -0.003184 -0.045670
0.235132 -0.001391 -0.052378
0.172270 -0.031071 -0.048206
0.282856 -0.100704 -0.015681
0.407974 -0.083490 0.023555
-0.350838 -0.034757 -0.050558
0.380083 -0.028754 -0.007404
0.263320 0.078425 -0.018329
0.387325 0.033114 -0.003349
0.423429 -0.032502 0.023066
0.291584 0.065015 -0.017926
-0.473677 -0.042466 -0.052460
0.432260 0.000125 0.009958
-0.484044 0.008822 -0.048289
-0.115414 -0.006030 -0.028617
0.318693 0.092927 -0.010889
0.288575 0.039903 -0.024700
0.462107 -0.030547 0.044345
-0.189657 0.003858 -0.038219
0.287068 -0.012967 -0.027040
-0.112370 0.032840 -0.022297
-0.383618 -0.040073 -0.063112
-0.443293 -0.047133 -0.060626
-0.401807 -0.025211 -0.062354
0.379572 0.060278 -0.000443
-0.209765 0.035314 -0.031078
0.359425 0.057235 -0.009157
-0.317723 -0.015042 -0.046381
0.270657 0.104213 -0.012326
-0.199490 -0.019275 -0.039665
0.325719 -0.036020 -0.026297
0.292611 -0.105042 -0.001073
0.312437 -0.046179 -0.017143
0.412430 -0.050563 0.011548
0.178437 0.042937 -0.037788
-0.052236 -0.009868 -0.023035
0.388953 -0.009315 -0.007881
0.216229 -0.034158 -0.048648
0.280472 -0.016329 -0.029039
-0.239000 0.005892 -0.045575
-0.446332 -0.007431 -0.060499
-0.365919 -0.020806 -0.062921
0.149424 -0.016551 -0.042443
0.097995 0.015870 -0.020254
0.381561 0.055689 0.009930
0.054111 -0.021795 -0.013262
-0.179056 0.025635 -0.036729
0.190186 -0.031258 -0.038242
-0.410743 0.004505 -0.051343
0.287542 0.108339 -0.000556
0.103319 0.004882 -0.033592
0.329194 -0.061581 -0.018834
-0.175670 0.035641 -0.028579
-0.440066 0.047340 -0.052728
-0.106192 -0.005444 -0.027595
0.420010 0.081217 0.031525
0.214575 -0.040763 -0.035528
-0.148205 0.006860 -0.032564
0.377881 -0.038496 -0.006195
-0.095740 0.032104 -0.017558
-0.116386 -0.033017 -0.024330
0.032444 -0.004636 -0.022431
0.488504 -0.020698 0.047411
0.264731 -0.000009 -0.033809
0.055098 0.010776 -0.013377
0.286721 -0.105233 -0.002197
0.408225 0.004802 0.010474
0.488095 0.022532 0.058333
-0.069419 0.012604 -0.024147
0.281917 0.094484 -0.018847
0.466127 -0.042749 0.040973
-0.378445 0.015971 -0.063328
0.463590 -0.030671 0.034694
-0.436663 -0.037928 -0.050263
-0.449118 -0.036456 -0.060383
0.285112 0.005316 -0.027633
0.496862 0.014533 0.052376
-0.084079 0.014457 -0.025456
-0.147093 0.024221 -0.032422
-0.268155 -0.039733 -0.042582
-0.384553 0.016548 -0.063073
-0.113329 0.006940 -0.018758
0.405924 0.007181 -0.000710
0.217779 0.013949 -0.041662
-0.342811 -0.025788 -0.060410
0.330968 0.106092 -0.000587
0.060663 -0.021728 -0.014023
0.339730 0.069162 -0.002747
0.457874 -0.037121 0.033562
0.456080 0.049580 0.047878
-0.250687 -0.021404 -0.036940
0.397714 0.006085 0.006489
-0.085698 0.000525 -0.025602
0.428929 0.076156 0.038405
-0.324961 0.023239 -0.047336
0.202164 0.009496 -0.044519
-0.225697 -0.006103 -0.033351
0.207547 0.068426 -0.034745
0.444356 -0.019344 0.019369
-0.404797 -0.003906 -0.062230
-0.039070 -0.023705 -0.012562
-0.447403 0.012314 -0.049815
-0.475909 -0.033184 -0.059266
-0.230884 0.038084 -0.039707
0.051357 -0.025595 -0.016962
-0.389637 0.001437 -0.062861
0.051142 -0.000934 -0.023994
0.200787 -0.047114 -0.043308
0.010103 0.002583 -0.011306
0.308481 0.010142 -0.020551
-0.030289 0.003946 -0.012055
0.402368 0.036559 0.014493
0.230222 -0.026358 -0.048220
0.193291 -0.010690 -0.045457
0.381192 -0.014298 -0.010106
-0.474743 -0.003532 -0.048676
0.146596 -0.001942 -0.051691
0.291422 -0.087381 -0.010030
0.353105 -0.103402 0.006360
0.207185 -0.047380 -0.032776
-0.104470 -0.010036 -0.027404
0.333754 -0.091515 0.003815
0.173512 0.002307 -0.046412
-0.261251 -0.027331 -0.048950
-0.477290 -0.027503 -0.059209
-0.161986 -0.023027 -0.034357
0.268930 0.015840 -0.044502
0.254239 0.076525 -0.030566
0.374893 0.102638 0.017063
-0.082373 0.026869 -0.025302
0.335998 0.007870 -0.025511
0.410764 0.024213 0.015627
-0.328510 -0.025463 -0.047784
-0.420444 0.007124 -0.061578
-0.414686 0.002222 -0.051179
-0.308225 -0.019394 -0.045083
0.428329 -0.038638 0.016035
-0.479782 0.005027 -0.048466
0.447435 0.011383 0.019273
0.217176 0.075659 -0.028049
0.426827 0.070171 0.038805
0.324221 -0.026429 -0.015781
-0.463965 -0.046197 -0.049125
0.387590 0.089873 0.015840
-0.291286 -0.016828 -0.053436
0.195614 0.034461 -0.047916
-0.303037 -0.037400 -0.055143
0.212873 -0.029343 -0.039374
0.338421 -0.096126 0.007832
0.394516 -0.056933 0.004986
0.472133 0.024518 0.048374
0.343430 0.002757 -0.023259
0.333171 -0.079710 -0.002254
0.153284 0.013242 -0.054176
-0.158755 0.001084 -0.033908
0.207213 -0.057968 -0.028629
0.372805 -0.079289 0.014195
0.454365 0.056873 0.049760
-0.030006 -0.029195 -0.018918
-0.274647 -0.003656 -0.050977
-0.174078 -0.018000 -0.036038
0.421194 0.058764 0.030727
-0.229332 0.005009 -0.033870
-0.154677 0.026060 -0.033385
-0.405680 -0.043143 -0.062193
0.391742 -0.092267 0.019021
0.457418 0.050380 0.038398
-0.093370 0.024310 -0.026295
-0.294768 0.017909 -0.043244
0.011272 -0.007545 -0.011318
0.453829 0.004831 0.021004
-0.111396 0.020075 -0.028171
-0.280842 0.006589 -0.041263
0.391373 -0.095910 0.026391
-0.135406 -0.033859 -0.025829
-0.155412 0.021476 -0.023760
0.266417 0.086124 -0.014386
0.248228 0.016715 -0.036928
-0.446274 -0.018365 -0.049862
0.202987 0.052991 -0.030487
0.351759 -0.064307 -0.010277
0.002643 -0.027751 -0.013591
0.228991 -0.083712 -0.026554
-0.264196 -0.018541 -0.049397
0.284082 0.051978 -0.022823
0.384949 -0.067459 0.004134
0.258825 -0.019609 -0.045370
-0.029203 0.019578 -0.021918
0.277422 -0.017950 -0.042580
-0.143128 0.028795 -0.031919
0.410519 0.009821 0.001904
0.033924 -0.013058 -0.011930
-0.400332 0.032695 -0.051777
-0.124132 0.016290 -0.029583
0.309307 0.036576 -0.031050
-0.300054 -0.033088 -0.043966
0.392948 -0.072879 0.010638
0.019817 0.026991 -0.014732
-0.371867 -0.044322 -0.062508
-0.435519 -0.033646 -0.050311
-0.259770 0.019070 -0.038250
0.282553 0.074163 -0.017847
-0.053356 0.023574 -0.023107
0.269801 0.005757 -0.045571
0.289126 -0.044560 -0.034114
-0.318213 -0.017604 -0.057251
0.407813 0.088137 0.035488
0.380601 -0.087332 0.011174
-0.186335 -0.023458 -0.027839
-0.410343 0.037246 -0.051360
-0.011837 -0.003222 -0.021381
0.380025 -0.017389 0.001129
-0.361663 0.043870 -0.059417
-0.385282 -0.044915 -0.061801
-0.497734 -0.014024 -0.052963
0.242829 0.067376 -0.035231
-0.211999 -0.009545 -0.041506
0.117868 0.017513 -0.038293
0.402281 -0.027323 0.001811
-0.351649 0.015687 -0.061463
-0.354261 0.008273 -0.050937
0.258252 0.079431 -0.018359
-0.457947 0.023969 -0.049376
0.419001 0.074630 0.036391
-0.035258 -0.012227 -0.022120
0.280779 -0.091889 -0.020295
-0.141939 -0.011257 -0.022073
-0.361034 -0.043843 -0.059366
-0.204859 0.004603 -0.040455
-0.076279 0.031243 -0.022002
-0.237930 0.038395 -0.038857
0.350030 -0.086747 0.007607
0.410867 -0.027509 0.005721
0.468513 -0.032677 0.049232
-0.329027 -0.014971 -0.058699
-0.345837 0.000283 -0.060786
0.316950 -0.057691 -0.012897
0.291505 0.037958 -0.035148
0.465143 -0.009634 0.038187
-0.394214 -0.029522 -0.052032
0.454777 0.018594 0.024435
0.402189 0.079795 0.018736
-0.367434 0.039422 -0.063076
0.294449 0.091195 -0.018144
0.374346 -0.082348 0.005743
0.080879 -0.024289 -0.025229
-0.394900 0.019490 -0.062642
0.481017 0.005532 0.038235
0.331952 0.080377 -0.002375
0.274431 0.064191 -0.032602
0.261255 0.083103 -0.016384
0.202725 -0.013764 -0.043647
0.414071 -0.054687 0.014266
0.392272 -0.031517 0.009055
-0.447409 0.020108 -0.049815
-0.379278 -0.044650 -0.058199
0.331817 -0.030076 -0.013480
0.388815 -0.043734 -0.000367
-0.195022 0.021196 -0.029035
0.130326 -0.017950 -0.031521
0.198167 0.012584 -0.044460
0.491548 -0.004659 0.046819
0.322572 0.057764 -0.021814
-0.466811 -0.027030 -0.049007
-0.028461 -0.009523 -0.021893
0.406439 0.038611 0.006056
0.054963 0.023558 -0.024407
-0.471806 0.030841 -0.059437
0.409814 -0.069016 0.018211
-0.031366 -0.024143 -0.012118
0.386872 -0.082257 0.022591
0.275107 -0.102146 -0.016299
0.368390 0.030371 -0.011885
0.430775 -0.043249 0.030040
0.209146 -0.000394 -0.045342
0.216486 0.064333 -0.036876
-0.429826 -0.024497 -0.061187
-0.464584 0.008579 -0.059738
0.370953 0.069851 -0.001681
0.332126 0.006628 -0.013386
-0.159105 0.009715 -0.024238
-0.048247 0.008038 -0.022776
-0.038170 -0.029557 -0.012920
0.408663 0.050122 0.020179
0.225294 0.016875 -0.040111
0.315209 -0.006900 -0.031811
0.440328 0.057905 0.031162
0.449259 -0.052995 0.034469
0.331962 -0.111708 0.005868
0.332802 -0.063523 -0.017131
0.445885 0.026008 0.021660
-0.419108 0.018000 -0.050994
-0.171124 -0.035439 -0.031672
0.368537 -0.031824 -0.000850
0.435311 -0.030490 0.017361
0.312866 0.043456 -0.028333
0.328932 -0.068553 -0.006526
0.200839 -0.061745 -0.037650
-0.057040 -0.020632 -0.013599
0.337789 0.073803 -0.012889
0.424932 0.013263 0.019742
0.356283 0.104208 0.008141
0.379902 -0.022025 0.001679
0.345907 0.012791 -0.022508
0.443739 0.001812 0.026309
0.046273 -0.019913 -0.023467
-0.469658 0.011777 -0.048888
-0.424619 0.025707 -0.050765
0.472778 0.042754 0.055523
0.298940 0.105374 0.000565
0.250561 -0.000187 -0.050490
0.014887 -0.026847 -0.021533
-0.384460 0.040773 -0.063077
0.153423 -0.022563 -0.050289
0.423957 0.005716 0.017786
0.214641 -0.062458 -0.027001
0.213146 0.044080 -0.044837
0.241648 0.091247 -0.021040
0.087591 -0.001513 -0.018119
-0.154944 -0.019944 -0.023700
0.486010 -0.031411 0.053293
0.426795 0.016615 0.010641
-0.309620 0.040384 -0.045273
0.240681 0.084979 -0.027708
0.304290 -0.016199 -0.021821
0.417212 -0.000458 0.003047
-0.378960 -0.016261 -0.063306
0.402317 0.081580 0.030230
-0.109760 -0.002417 -0.027990
-0.025855 -0.029012 -0.014136
-0.346784 0.037635 -0.060903
0.300233 0.061877 -0.016563
0.225995 -0.046302 -0.044221
0.417008 -0.055088 0.026708
0.233045 0.078256 -0.030885
0.265194 -0.004615 -0.033668
0.388300 0.075441 0.020144
0.030714 0.024820 -0.022343
-0.309154 0.024707 -0.055993
0.350635 0.109154 0.018513
0.428932 0.058723 0.035332
-0.435513 -0.047138 -0.050916
0.381100 0.091960 0.024207
-0.141591 0.034133 -0.024613
-0.164058 0.029267 -0.024879
-0.022130 0.023997 -0.011778
0.304382 -0.105548 -0.008720
-0.370199 -0.038959 -0.063358
0.350965 -0.013327 -0.020976
-0.489748 -0.003033 -0.048051
0.381628 0.018980 -0.008891
-0.318808 -0.032638 -0.057333
0.174906 0.039682 -0.035596
0.374874 0.062782 0.008892
0.215127 -0.072666 -0.033481
0.425218 -0.077376 0.041031
0.124964 0.001090 -0.041014
0.159263 -0.001944 -0.044979
0.446698 0.061465 0.036438
-0.413573 -0.039980 -0.061864
-0.494844 -0.006262 -0.058478
-0.363686 0.003720 -0.051980
-0.293940 -0.039267 -0.043129
0.466560 0.015107 0.041202
0.364153 0.024412 -0.014965
0.361753 0.097052 0.017719
0.274110 0.052430 -0.024789
0.346458 -0.076512 -0.009292
0.074768 -0.023438 -0.027206
0.470984 0.041071 0.043406
0.309005 -0.029930 -0.020392
0.060508 -0.000823 -0.014005
-0.427195 -0.002633 -0.061296
0.362652 0.048786 -0.009918
-0.195518 0.002927 -0.029103
-0.165459 -0.033601 -0.025060
0.364335 0.080979 0.011085
0.287366 0.003074 -0.040248
0.051564 0.025586 -0.021973
0.417667 -0.000174 0.014420
-0.364093 -0.042829 -0.062735
0.412142 -0.015183 0.014382
0.344132 -0.005027 -0.009748
0.366396 -0.006653 -0.003001
0.277391 0.063475 -0.021513
-0.477358 0.032653 -0.048567
0.341761 -0.027652 -0.022859
0.241203 0.063709 -0.036842
0.058614 -0.025166 -0.013785
0.191679 -0.053789 -0.029801
-0.121094 -0.014928 -0.029246
0.004197 -0.005884 -0.011245
-0.077162 -0.027165 -0.015253
-0.009555 -0.014793 -0.021392
0.395011 0.067646 0.009433
-0.284735 -0.016692 -0.041818
0.326867 -0.012610 -0.014980
0.299908 -0.008650 -0.023149
0.367795 0.014562 -0.015777
0.195423 -0.000910 -0.047021
0.452557 -0.021101 0.034635
0.219418 -0.077325 -0.028457
0.311609 -0.034474 -0.030954
-0.072228 0.005142 -0.024386
0.361055 0.079603 -0.001655
0.332401 0.046540 -0.010850
-0.034577 0.010156 -0.022098
-0.153674 -0.015206 -0.033258
0.351685 0.031463 -0.018262
0.418620 0.076641 0.026426
-0.429853 0.013222 -0.061186
-0.064698 -0.017433 -0.023842
-0.384505 0.033126 -0.052436
0.264073 0.005428 -0.034008
0.348018 0.083962 0.005381
0.343454 0.008491 -0.009953
-0.461176 0.040656 -0.059880
-0.448899 -0.047730 -0.058559
-0.342262 0.038148 -0.049522
0.107725 0.005229 -0.023079
0.237895 -0.074133 -0.032498
-0.125416 -0.017440 -0.029725
-0.305374 -0.002722 -0.055468
0.151136 -0.005828 -0.053567
0.320105 0.054943 -0.023267
-0.466496 -0.015471 -0.049020
0.440296 0.009232 0.015499
-0.258187 0.031589 -0.048485
0.275900 -0.068139 -0.031375
0.201190 -0.043291 -0.044776
0.429804 -0.075563 0.037588
-0.473651 -0.004988 -0.059361
0.155746 0.006667 -0.044234
0.416770 -0.061766 0.029507
0.252472 -0.072235 -0.021961
-0.161106 -0.005010 -0.034235
-0.132558 0.033733 -0.025831
-0.311615 -0.020433 -0.056334
-0.249461 -0.026751 -0.036763
0.417104 -0.041877 0.022156
-0.291429 -0.022369 -0.042771
0.108463 0.011181 -0.023294
-0.331526 0.000675 -0.059009
-0.417451 0.042433 -0.061702
-0.468315 0.044688 -0.054086
0.340975 0.020319 -0.010704
-0.076783 -0.021860 -0.015221
0.393138 0.010594 0.005102
0.362469 -0.092499 0.015833
-0.348070 -0.008126 -0.061063
-0.220199 -0.037611 -0.039763
0.264802 -0.101955 -0.013166
0.037801 -0.023912 -0.012152
0.030427 0.001589 -0.022328
0.294109 -0.072249 -0.015578
-0.217140 -0.037476 -0.036156
0.312250 -0.038112 -0.019216
-0.484362 0.031490 -0.058914
0.461139 -0.051048 0.051655
0.373367 -0.021378 -0.000889
0.118295 0.004059 -0.038457
0.364204 0.025222 -0.003665
0.243694 -0.040324 -0.043424
0.243566 -0.018657 -0.037226
0.243640 -0.000048 -0.051481
0.340953 0.074456 -0.001022
0.140833 0.021636 -0.042276
-0.226092 -0.015885 -0.043620
0.246584 0.044588 -0.042070
0.386002 -0.003797 -0.010355
0.187463 -0.008583 -0.057258
-0.390543 0.028251 -0.062823
0.133151 -0.011967 -0.032721
0.109085 0.023041 -0.030324
0.483412 0.001803 0.039947
-0.457090 -0.042814 -0.060051
0.260750 -0.060084 -0.025601
0.357305 0.040852 -0.013901
-0.302157 0.005563 -0.044254
0.327425 -0.067272 -0.017945
-0.429954 0.044536 -0.050542
-0.425908 0.012613 -0.061350
-0.473614 -0.039708 -0.048723
0.111910 0.014972 -0.036009
0.293515 -0.044101 -0.022549
-0.310365 0.037031 -0.056161
0.379574 0.007409 -0.012306
0.435614 -0.015116 0.025085
-0.327111 0.005144 -0.058461
0.305303 -0.009442 -0.034813
0.349724 0.004622 -0.021352
0.235333 -0.029094 -0.046968
0.228760 0.062230 -0.037730
-0.267940 0.021021 -0.039426
-0.185601 -0.033564 -0.037639
0.412900 0.028502 0.017485
0.323353 0.012488 -0.016044
-0.137028 0.003039 -0.031145
-0.205053 0.031882 -0.040484
0.420261 0.035754 0.011673
0.250175 0.055876 -0.028427
-0.252164 -0.019671 -0.047571
-0.019016 0.001355 -0.021576
0.375932 0.079686 0.005301
0.366448 0.087680 0.015247
-0.223174 0.037504 -0.032991
-0.153431 -0.028566 -0.023504
-0.160509 0.008178 -0.034152
0.420263 0.070755 0.035386
0.276542 0.082230 -0.025684
0.418434 -0.071162 0.034554
-0.376631 0.000968 -0.052764
0.339425 0.000115 -0.024473
-0.422494 0.015956 -0.061492
0.255984 -0.038170 -0.041899
-0.372765 0.011563 -0.052925
0.397048 0.014629 0.007472
0.088044 -0.006688 -0.018205
-0.132078 -0.010253 -0.020913
0.447703 -0.035462 0.026468
0.118309 -0.005971 -0.038462
0.336883 0.061655 -0.005583
0.358947 -0.097579 0.006105
-0.407908 0.006957 -0.062100
-0.050372 0.025922 -0.013215
0.392923 -0.001768 -0.007537
0.331256 0.085005 -0.000339
0.236380 0.012506 -0.039442
0.357840 0.007799 -0.005594
0.298038 0.046391 -0.020926
-0.194955 0.020993 -0.038998
0.158852 -0.025915 -0.045651
0.336038 -0.096690 -0.003411
0.265055 0.074647 -0.030531
0.240199 0.090482 -0.016264
0.301593 0.041709 -0.021207
0.305739 0.044960 -0.029929
0.278462 -0.094985 -0.008553
0.219402 0.049547 -0.042831
0.287283 0.063815 -0.019233
0.391952 0.002552 -0.007945
-0.471336 0.035042 -0.048818
0.451039 0.033472 0.038454
0.498967 0.006997 0.053065
0.147297 -0.000661 -0.041297
-0.061941 -0.030608 -0.017380
0.324905 0.057125 -0.010628
0.384356 0.066974 0.014252
0.323249 0.082551 -0.004057
-0.447651 -0.019611 -0.060444
0.052055 0.001396 -0.013024
-0.359673 0.038755 -0.051536
0.316581 -0.016225 -0.031395
0.265383 -0.058658 -0.035699
0.178997 0.006531 -0.057887
0.244235 0.033306 -0.044787
0.417297 0.071697 0.023522
0.342012 0.058083 -0.015386
0.150193 -0.011870 -0.042661
-0.401890 -0.018247 -0.051712
-0.421490 0.046518 -0.057850
0.416988 0.039791 0.021673
-0.188633 0.032863 -0.028155
-0.354140 -0.041945 -0.050923
0.415950 0.034318 0.020075
0.384695 0.073179 0.017297
-0.262620 -0.022496 -0.038662
0.425202 0.042034 0.015570
0.217405 -0.075829 -0.022496
0.044544 0.002204 -0.012538
0.221213 0.062933 -0.037445
-0.469932 0.021747 -0.048877
-0.449412 0.047753 -0.054060
-0.201014 -0.011063 -0.039890
0.309748 -0.014182 -0.020167
0.350313 0.053726 -0.002754
0.017934 -0.017957 -0.021689
0.453411 -0.050554 0.046579
-0.065227 0.018826 -0.014270
-0.432918 0.024444 -0.061058
0.207992 -0.036264 -0.037056
0.414223 -0.060087 0.016723
0.283051 0.014130 -0.041556
0.294349 0.050783 -0.031376
-0.172700 -0.007692 -0.035846
0.452540 0.010834 0.021560
0.087996 -0.005026 -0.029575
-0.190602 0.016703 -0.038358
-0.465772 -0.032152 -0.059689
0.452247 -0.011494 0.021552
0.306097 -0.053099 -0.017178
0.105876 -0.003738 -0.022542
-0.007717 0.028209 -0.013768
-0.481418 -0.025352 -0.059037
0.299677 0.049960 -0.019676
0.367520 0.104697 0.014966
-0.014043 -0.015035 -0.011557
-0.302857 0.040096 -0.055118
0.043281 0.025952 -0.013162
0.339984 0.090227 -0.005152
0.036335 -0.000322 -0.022630
-0.285955 -0.008495 -0.052648
-0.425523 0.020092 -0.050727
0.110745 -0.001865 -0.035585
0.450702 0.050569 0.044967
-0.444176 0.025396 -0.060589
0.450829 0.059062 0.048552
0.111043 0.007996 -0.024043
0.369945 0.002314 -0.001926
0.265103 -0.035446 -0.030319
0.260504 -0.005279 -0.035090
-0.359127 -0.022203 -0.062227
0.452939 -0.033076 0.028867
0.123996 0.022381 -0.039671
0.141090 0.021625 -0.037620
-0.475894 0.036485 -0.059267
0.410818 -0.007151 0.001488
-0.227551 0.016076 -0.033616
-0.194428 0.016463 -0.028953
0.398231 0.030723 0.011429
0.242264 -0.027283 -0.035679
0.324451 -0.048441 -0.012937
0.239365 -0.084942 -0.027813
0.257407 -0.016014 -0.035679
0.456452 -0.014737 0.024148
-0.403357 0.025264 -0.051651
-0.135827 0.021590 -0.021354
-0.020783 0.028787 -0.017500
0.448014 -0.007459 0.029424
-0.472910 -0.015990 -0.059391
0.185728 -0.049668 -0.038078
0.422347 -0.037303 0.012932
-0.021139 -0.028803 -0.012406
0.283278 -0.006906 -0.041487
0.079650 0.024343 -0.024071
0.393445 0.089744 0.029341
-0.362907 -0.006659 -0.062613
0.311544 0.027209 -0.019623
0.424424 -0.004137 0.017700
-0.044717 0.016574 -0.022548
-0.073074 0.025008 -0.014916
0.404852 -0.018773 0.001203
0.261900 0.060036 -0.036037
-0.354773 0.011796 -0.061783
-0.437265 -0.043261 -0.060877
0.318477 0.032927 -0.017522
0.324083 -0.078765 -0.016080
-0.276915 0.034155 -0.040704
-0.174757 0.035600 -0.033502
-0.043633 -0.016645 -0.012826
-0.071903 0.009321 -0.024357
-0.268497 0.038360 -0.050050
-0.316769 0.013478 -0.046250
-0.341031 -0.010653 -0.060189
0.276106 0.096579 -0.018821
0.462979 -0.034549 0.035806
-0.114243 -0.019578 -0.028487
0.006917 0.027562 -0.011936
0.399682 -0.049195 0.016135
0.324065 0.021949 -0.015829
-0.356994 0.030754 -0.062009
-0.108509 -0.020129 -0.027851
0.273874 -0.000558 -0.044337
0.326504 -0.091362 0.001335
0.206900 -0.011720 -0.043488
-0.119316 -0.010176 -0.029049
-0.087490 0.017322 -0.025764
0.338935 -0.045935 -0.019438
0.283022 -0.046753 -0.024262
0.069482 0.021420 -0.015047
0.169580 0.023725 -0.040312
0.239429 0.056679 -0.029251
0.345207 0.012579 -0.009422
0.005661 -0.007522 -0.021462
-0.475648 -0.041650 -0.059277
0.284726 -0.091655 -0.009100
0.348584 -0.019454 -0.021697
0.355476 -0.067905 0.002610
0.078566 0.011527 -0.027886
0.473489 -0.042144 0.055857
0.438031 0.065477 0.032918
0.310575 0.107021 -0.006302
0.311596 -0.106202 0.004237
-0.060116 0.001500 -0.023545
0.382670 0.033753 0.005440
0.417779 -0.031720 0.009721
0.313731 -0.073099 -0.020633
0.244410 0.057203 -0.039519
-0.290763 0.015729 -0.053358
0.276285 0.022072 -0.041870
-0.281772 -0.031141 -0.052030
0.466320 0.015908 0.030720
0.099790 0.000400 -0.020775
-0.485082 -0.012997 -0.048245
0.325379 -0.040051 -0.014753
-0.176417 0.030302 -0.026478
0.481348 -0.035407 0.053501
0.196240 -0.039721 -0.045954
-0.435196 0.035327 -0.060963
0.076327 0.002647 -0.015962
-0.417853 -0.024090 -0.051047
-0.479763 0.009501 -0.048467
0.259345 -0.099745 -0.017535
0.329978 -0.018987 -0.027336
-0.424817 -0.010975 -0.050757
0.442672 -0.041361 0.036367
0.392479 0.071172 0.009612
0.478553 -0.007857 0.036723
0.372019 0.020678 -0.012627
0.267875 -0.047292 -0.027158
-0.180494 0.015914 -0.027034
0.331060 -0.105547 0.009808
-0.205550 -0.019220 -0.040557
0.353415 0.098759 0.014892
-0.271380 -0.028990 -0.039916
-0.409921 0.002225 -0.062016
-0.021512 -0.003781 -0.021660
-0.306491 -0.012461 -0.055623
0.275533 0.081906 -0.015312
-0.403148 -0.023273 -0.051659
-0.451046 -0.009492 -0.049664
0.441789 -0.067026 0.039016
-0.281435 -0.037169 -0.041348
0.308176 -0.062412 -0.014304
-0.217529 0.032846 -0.032186
0.231678 -0.085435 -0.023683
0.286685 0.078158 -0.015292
0.069098 -0.024810 -0.016534
0.061254 0.008079 -0.014091
-0.485103 -0.001012 -0.048244
-0.082199 0.002704 -0.025286
0.191672 -0.006214 -0.046513
0.340477 0.046421 -0.008159
0.397058 0.066982 0.020910
-0.166755 -0.014935 -0.035020
0.429267 0.024388 0.024018
-0.477657 -0.010040 -0.048555
0.400963 -0.031647 0.012801
0.354708 -0.035659 -0.005490
0.356667 0.055099 -0.000063
-0.276871 0.025789 -0.051306
-0.418042 -0.016627 -0.061678
-0.469636 -0.044140 -0.048907
0.030465 -0.023770 -0.022330
0.190245 -0.045663 -0.032839
0.068621 0.006872 -0.026105
0.433551 -0.010538 0.012582
-0.493885 -0.017018 -0.047879
0.310353 -0.110685 0.006102
-0.213181 -0.001572 -0.041680
0.248655 -0.049475 -0.040683
0.396361 -0.024212 -0.001440
-0.448018 0.033546 -0.049790
0.395733 -0.094066 0.031781
0.423080 -0.002385 0.006098
0.070185 0.013302 -0.026385
0.465406 0.043387 0.051401
0.382404 -0.037741 -0.004437
0.344852 0.025148 -0.022318
0.308427 -0.056344 -0.015750
-0.138528 -0.013578 -0.021672
-0.126303 0.005880 -0.020234
-0.325603 -0.019176 -0.058274
-0.061629 -0.004892 -0.023643
-0.368564 0.014917 -0.052520
-0.432625 0.003063 -0.061070
0.454873 0.022729 0.026094
0.477239 -0.023216 0.040472
0.233605 0.086671 -0.022919
0.300837 -0.009702 -0.036166
-0.174247 0.014975 -0.036061
0.421228 0.051820 0.017240
0.327318 0.062782 -0.008472
-0.176264 -0.027873 -0.036341
-0.330942 0.031298 -0.058937
-0.060021 -0.027893 -0.013842
-0.471298 -0.021227 -0.059459
0.197351 0.028551 -0.039565
0.033200 0.017710 -0.011889
0.431919 0.051169 0.033995
0.239566 0.049561 -0.031523
0.307595 0.031306 -0.032814
0.383542 -0.082533 0.010418
0.181685 0.045940 -0.036846
0.298387 -0.045031 -0.021173
0.022680 0.006442 -0.011437
0.237382 -0.008979 -0.050625
-0.491092 0.027242 -0.048336
0.287506 -0.047707 -0.023097
0.439286 0.053579 0.028753
0.332256 -0.060095 -0.007534
0.309989 -0.105241 -0.007369
0.133201 -0.018167 -0.044512
-0.313216 -0.039095 -0.045765
-0.437350 0.034552 -0.050234
-0.436880 -0.015971 -0.050254
0.328553 0.077554 -0.015028
-0.283929 0.029725 -0.041703
0.339812 -0.039581 -0.010061
0.332801 0.053480 -0.008995
0.414732 -0.072147 0.032942
0.393846 0.063807 0.007103
