0.73711276 0.36180806 0.77368098 0.00077197 -0.00052374 0.00087314
0.69492358 0.28399816 0.75874591 0.00089703 -0.00083195 0.00059362
0.53702003 0.32444552 0.18015943 -0.00090103 -0.00060139 -0.00151301
0.76303065 0.34596598 0.52822077 0.00076923 -0.00046711 -0.00012794
0.60592473 0.41825297 0.15069035 0.00006844 -0.00007995 -0.00194586
0.76061732 0.66746730 0.28088576 0.00087827 0.00119275 -0.00109100
0.68575698 0.34417686 0.81431872 0.00085793 -0.00087809 0.00117535
0.79744238 0.72454417 0.41733527 0.00128558 0.00095588 -0.00030076
0.64564878 0.14121450 0.50242460 0.00083794 -0.00147324 -0.00020452
0.37598550 0.20226523 0.45624360 -0.00032385 -0.00071633 -0.00041685
0.36861935 0.25695252 0.65294844 -0.00097566 -0.00064036 0.00071952
0.71713239 0.60555130 0.21069551 0.00049737 0.00066492 -0.00173979
0.45173812 0.07201236 0.38543820 0.00057711 -0.00187454 -0.00021121
0.73582840 0.51294822 0.81701374 0.00086127 0.00000202 0.00127523
0.43506229 0.70013946 0.41779608 -0.00083841 0.00053337 -0.00040315
0.47994870 0.39834926 0.18811259 -0.00063736 -0.00035718 -0.00138743
0.36371723 0.23906106 0.61707878 -0.00086269 -0.00092183 0.00050361
0.46738976 0.75968158 0.43409672 -0.00080594 0.00133900 -0.00008075
0.32279444 0.45840627 0.56321168 -0.00081115 0.00012074 -0.00006170
0.49433738 0.71129239 0.31254283 -0.00039541 0.00113450 -0.00079950
0.84295183 0.60993510 0.61696494 0.00094296 0.00041932 0.00034164
0.34256855 0.34779683 0.70611024 -0.00092221 -0.00051928 0.00091810
0.77952498 0.85947502 0.67001182 0.00152762 0.00100738 0.00080392
0.30413002 0.39792675 0.38281983 -0.00068551 0.00014412 -0.00047238
0.28638729 0.34413964 0.38457069 -0.00130222 0.00021274 -0.00156442
0.43638948 0.58263820 0.77815837 -0.00021106 0.00023358 0.00158373
0.40490705 0.53083742 0.23476563 -0.00109011 0.00044012 -0.00098689
0.45045930 0.31004560 0.22867824 -0.00067005 -0.00086736 -0.00107690
0.32640761 0.14041345 0.31829900 -0.00048994 0.00035099 -0.00085902
0.66719967 0.15867336 0.53197819 0.00115291 -0.00113151 0.00009308
0.52882016 0.10886452 0.47213414 -0.00002397 -0.00135048 -0.00028761
0.57266325 0.11851215 0.57137889 0.00058036 -0.00153342 -0.00006119
0.77155161 0.74804878 0.56753916 -0.00026322 0.00034642 -0.00010220
0.43941349 0.34945527 0.77862585 -0.00086165 -0.00068866 0.00087546
0.70051301 0.65832323 0.23872362 0.00055019 0.00090285 -0.00146725
0.35152555 0.29589465 0.33503449 -0.00083741 -0.00063518 -0.00044222
0.76140368 0.89858836 0.66724473 0.00177314 0.00116604 0.00035789
0.41939712 0.28278816 0.26907602 -0.00081898 -0.00051325 -0.00084578
0.75827044 0.36976120 0.34412897 0.00098252 -0.00035549 -0.00022908
0.36424559 0.20955251 0.49602512 -0.00054981 -0.00087854 0.00000855
0.63183242 0.88246459 0.65474772 0.00076282 0.00010377 -0.00043064
0.34909198 0.55707300 0.45424491 -0.00049702 0.00021517 0.00006396
0.52913785 0.40714517 0.16625075 -0.00021552 0.00000435 -0.00171147
0.62447083 0.33028391 0.17948911 0.00041747 -0.00116523 -0.00151971
0.72267675 0.32776582 0.25528449 0.00134248 -0.00074905 -0.00073489
0.29814070 0.28474966 0.49211669 -0.00107611 -0.00075094 0.00052938
0.41219658 0.25833270 0.70614070 -0.00102155 -0.00059653 0.00078648
0.70625222 0.29220483 0.26480597 0.00104036 -0.00108857 -0.00085231
0.81091505 0.70192528 0.61201322 0.00068118 0.00006621 -0.00013534
0.71012568 0.25160199 0.41945568 0.00077552 -0.00076281 -0.00030051
0.36687523 0.45842993 0.73503631 -0.00058073 0.00068756 -0.00007091
0.69779658 0.32989407 0.79501671 0.00083884 -0.00087161 0.00090169
0.56710988 0.83568430 0.65943360 -0.00106455 0.00074319 0.00100961
0.74374324 0.29605913 0.70269531 0.00120211 -0.00077777 -0.00025218
0.46998107 0.69401044 0.69212490 -0.00134571 0.00010411 0.00004237
0.72730964 0.48458999 0.82362616 0.00108667 -0.00040086 0.00115198
0.36070225 0.23108312 0.59245545 -0.00106379 -0.00076913 0.00014004
0.42919460 0.63131809 0.26424488 -0.00050136 0.00052210 -0.00142014
0.32613611 0.25482988 0.54365718 -0.00112541 -0.00061611 -0.00002894
0.39211261 0.53448331 0.73436028 -0.00026167 0.00064287 0.00022749
0.57613224 0.11618222 0.49687237 0.00042541 -0.00151626 0.00010568
0.54270744 0.11872174 0.60086262 -0.00021763 -0.00173641 0.00088582
0.61474317 0.20741072 0.74458593 0.00025534 -0.00125686 0.00115220
0.74577570 0.67499787 0.72720933 0.00027048 0.00068938 0.00101444
0.75711560 0.32163560 0.63733286 0.00093641 -0.00043024 -0.00023098
0.31541473 0.27159131 0.56391805 -0.00104057 -0.00085694 0.00001154
0.51791513 0.54578602 0.19044255 -0.00042543 0.00029837 -0.00142718
0.79875952 0.81699961 0.64106441 0.00156674 0.00049618 0.00001475
0.77362239 0.41539687 0.30719230 0.00098782 -0.00061379 -0.00039370
0.41564530 0.15373403 0.45476204 -0.00045063 -0.00019634 -0.00020243
0.45461109 0.09148454 0.44869831 0.00011766 -0.00115234 0.00103626
0.46720046 0.50861281 0.80565238 -0.00065313 0.00019516 0.00111041
0.58829463 0.88970238 0.64369738 -0.00139805 0.00089023 -0.00018283
0.83216852 0.49580711 0.61631936 0.00107657 -0.00028338 -0.00007111
0.63077229 0.19476049 0.31705400 0.00062768 -0.00114144 -0.00041665
0.41427529 0.66878998 0.44785896 -0.00088068 0.00035668 -0.00001836
0.36064479 0.54907596 0.32813704 -0.00066526 0.00068941 -0.00065416
0.28648871 0.54867822 0.48728216 0.00080727 -0.00074018 -0.00028155
0.75939596 0.59720939 0.24114932 0.00150073 0.00029506 -0.00086684
0.56708062 0.48817503 0.16073459 -0.00013006 0.00032727 -0.00164251
0.37318912 0.28823781 0.69174522 -0.00083888 -0.00101318 0.00054870
0.58826083 0.12991293 0.42782679 0.00077485 -0.00120374 -0.00014469
0.55307281 0.81691283 0.64137757 -0.00107969 0.00031992 0.00022227
0.48611158 0.31235301 0.79051900 -0.00066948 -0.00086580 0.00096858
0.37868050 0.59587097 0.58239204 -0.00059021 0.00018597 -0.00002107
0.68402761 0.52756107 0.83391142 0.00036530 0.00034245 0.00139599
0.67854410 0.18558605 0.45526567 0.00108391 -0.00074074 -0.00008135
0.35976264 0.49761990 0.25474596 -0.00092028 0.00048139 -0.00115215
0.62004077 0.25778851 0.22810704 0.00070569 -0.00087121 -0.00134984
0.55895174 0.82789785 0.59722120 -0.00045134 0.00106553 -0.00050549
0.26546958 0.57761663 0.53961921 -0.00193050 0.00043315 0.00010949
0.68341243 0.63585299 0.21809997 0.00026880 0.00110945 -0.00132684
0.40937766 0.26351312 0.29304475 -0.00082033 -0.00061525 -0.00054163
0.75413215 0.76094902 0.46637008 0.00040853 0.00120841 -0.00021969
0.70312458 0.68906999 0.26928109 0.00037100 0.00119092 -0.00112122
0.77741140 0.38564721 0.47760072 0.00078765 -0.00041053 -0.00009135
0.76561064 0.42115751 0.76913601 0.00086803 -0.00052586 0.00071631
0.47250032 0.22637366 0.73059160 -0.00061933 -0.00105269 0.00092359
0.39654040 0.49542740 0.23366489 -0.00094425 0.00017514 -0.00113238
0.43454176 0.48310280 0.79572195 -0.00050045 0.00020500 0.00121079
0.46808717 0.27618247 0.23457973 -0.00083823 -0.00075374 -0.00098227
0.85249472 0.55474079 0.60902762 0.00128721 -0.00061274 -0.00003884
0.37733638 0.07125412 0.35198408 -0.00057537 -0.00180652 -0.00128444
0.83398479 0.53966600 0.38874838 0.00118426 -0.00046477 -0.00010641
0.77145243 0.54715723 0.24653141 0.00120872 -0.00013758 -0.00086363
0.50183421 0.31433484 0.19738281 -0.00071560 -0.00051787 -0.00139722
0.55598408 0.22280662 0.76817161 -0.00037374 -0.00090558 0.00147338
0.69034594 0.25592953 0.28279883 0.00111114 -0.00094879 -0.00091614
0.41170987 0.65731257 0.54595900 -0.00076525 0.00029097 -0.00003112
0.31092498 0.43781301 0.43919489 -0.00095497 0.00019465 -0.00000341
0.29784325 0.33612904 0.54202807 0.00020687 0.00061505 -0.00032662
0.40589172 0.46134910 0.78284305 -0.00113617 -0.00051595 0.00093582
0.44920084 0.73270917 0.37479007 -0.00153351 0.00066862 -0.00028486
0.74369812 0.63212705 0.76649058 0.00054010 0.00089894 0.00090496
0.50696391 0.16123426 0.32208461 -0.00037682 -0.00058363 -0.00039639
0.40048149 0.18221845 0.56615114 -0.00114281 -0.00067047 0.00016308
0.82499057 0.68069881 0.41924950 0.00109590 0.00061258 -0.00083140
0.47790155 0.46539271 0.18854523 -0.00060482 0.00018482 -0.00136699
0.72481412 0.68476158 0.72546184 0.00013571 0.00073948 0.00072094
0.63884258 0.46047369 0.84930962 -0.00000855 0.00036589 0.00154281
0.59348071 0.82148486 0.61433643 0.00065110 0.00003311 -0.00001084
0.85313016 0.61834794 0.44537127 0.00151057 0.00051959 -0.00012429
0.60024184 0.28265294 0.81211615 -0.00003540 -0.00105837 0.00143753
0.64120519 0.15740471 0.60886985 0.00081910 -0.00108074 0.00024976
0.68247050 0.18693918 0.49117482 0.00102245 -0.00075895 -0.00004598
0.69371915 0.19850893 0.59754455 0.00123542 -0.00055640 0.00002428
0.46751595 0.43001989 0.19206719 -0.00095888 -0.00025166 -0.00122227
0.72623479 0.73066205 0.33743206 0.00027241 0.00137343 -0.00071584
0.21066287 0.13692641 0.33282849 -0.00049803 0.00097187 -0.00096149
0.56276435 0.45636362 0.15793931 -0.00055324 0.00029560 -0.00157372
0.82000393 0.47771057 0.51337576 0.00086161 -0.00042108 0.00008537
0.67237103 0.91959620 0.64123899 0.00037363 -0.00058161 -0.00033539
0.64654338 0.21779972 0.29707709 0.00040575 -0.00079639 -0.00093605
0.71449488 0.70442307 0.29208255 0.00016877 0.00129530 -0.00098275
0.19680598 0.12186176 0.38456732 -0.00117773 0.00096014 0.00100929
0.65371454 0.39640012 0.84600741 0.00054921 -0.00024373 0.00162989
0.46155024 0.08043983 0.42570868 0.00047246 -0.00163671 0.00053318
0.58958811 0.26292950 0.80027819 -0.00025618 -0.00099025 0.00144705
0.68231505 0.64455086 0.77406514 -0.00035250 0.00084261 0.00090193
0.71989274 0.24589428 0.64816236 0.00107192 -0.00068210 0.00007486
0.58686155 0.78085393 0.45174709 -0.00010233 0.00109177 -0.00010221
0.31438950 0.64559752 0.51694393 -0.00037641 0.00119044 -0.00037895
0.70743859 0.25563771 0.37457827 0.00081780 -0.00091781 0.00001583
0.78588730 0.69366676 0.33863646 0.00131110 0.00082823 -0.00060902
0.65320534 0.41746432 0.16087542 0.00093176 -0.00012967 -0.00165860
0.35872832 0.15189081 0.33065179 -0.00024944 0.00062955 0.00004134
0.34812978 0.55953026 0.56110817 -0.00055588 0.00015067 0.00000570
0.49152184 0.14854234 0.64802718 -0.00090397 -0.00135987 0.00057974
0.79587293 0.50901389 0.74822170 0.00079761 -0.00031128 0.00104912
0.48856884 0.11882086 0.33061573 0.00073220 -0.00070040 -0.00126552
0.83076584 0.63058579 0.64405906 0.00112250 0.00029251 0.00022165
0.77235150 0.46180654 0.24406965 0.00122159 -0.00020456 -0.00122269
0.67409599 0.48061511 0.84471852 0.00008665 0.00030409 0.00154190
0.83567023 0.50863981 0.67236435 0.00137871 -0.00047086 0.00039006
0.81822598 0.48039654 0.47209018 0.00088893 -0.00035077 -0.00011734
0.28903157 0.29860991 0.47149417 -0.00134023 -0.00054891 -0.00035157
0.64961129 0.95454538 0.65256083 -0.00088825 0.00223701 -0.00097975
0.85404843 0.56372714 0.53034568 0.00107837 -0.00073934 0.00011628
0.46193555 0.73159713 0.54524016 -0.00077141 0.00052250 -0.00022462
0.32832971 0.61697227 0.50871700 0.00048024 -0.00015489 0.00043084
0.74371272 0.38792083 0.23615707 0.00114219 -0.00070226 -0.00113519
0.37209061 0.49862152 0.72175294 -0.00103526 -0.00015284 0.00032390
0.62614840 0.75472987 0.63518989 -0.00008586 0.00040741 0.00004208
0.31836888 0.38525626 0.70440447 -0.00132987 0.00045798 0.00108857
0.76501805 0.69486779 0.31263635 0.00078071 0.00115584 -0.00111736
0.78071481 0.79314804 0.67436641 0.00031718 0.00011247 0.00122797
0.22244890 0.08330494 0.34567812 -0.00048874 -0.00134112 -0.00090559
0.62509722 0.15096243 0.41404429 0.00023763 -0.00120085 -0.00020661
0.45504373 0.70479709 0.62109530 -0.00067909 0.00073133 0.00025253
0.32753319 0.50091875 0.50373942 -0.00054677 0.00021252 0.00009021
0.36464447 0.47485787 0.25197098 -0.00077728 -0.00024962 -0.00121316
0.78839642 0.43045589 0.37515849 0.00082540 -0.00059913 -0.00015298
0.77676243 0.41171715 0.34310144 0.00089175 -0.00061288 -0.00008552
0.67765176 0.23141661 0.29665571 0.00091746 -0.00124601 -0.00083503
0.36174554 0.51786953 0.29173443 0.00004443 0.00007425 0.00035606
0.45245349 0.65016276 0.72319728 -0.00085814 0.00088132 0.00022508
0.55067074 0.54405892 0.82103026 -0.00005484 0.00053915 0.00118070
0.70878381 0.26409447 0.35110077 0.00089083 -0.00073804 -0.00051811
0.53294039 0.72202045 0.31650084 -0.00000632 0.00110367 -0.00083706
0.78470093 0.85164917 0.62111449 0.00095502 0.00115670 -0.00100731
0.32829928 0.33905277 0.32755005 -0.00117965 -0.00063941 -0.00046819
0.79511017 0.41178814 0.57121658 0.00085364 -0.00033109 -0.00012753
0.77299827 0.55256861 0.77869236 0.00140743 -0.00010839 0.00072639
0.50721294 0.52755320 0.81461614 -0.00017770 0.00014529 0.00124802
0.33413771 0.49690446 0.37331980 -0.00100182 0.00016349 -0.00025063
0.84512973 0.60468036 0.39199993 0.00130031 0.00032046 -0.00067628
0.27434319 0.32528603 0.54268152 -0.00117334 0.00060605 0.00015874
0.40143919 0.29070634 0.72167629 -0.00084246 -0.00067292 0.00084175
0.35870582 0.53573167 0.61548221 -0.00071457 0.00020327 0.00010675
0.30285355 0.37740228 0.35867986 -0.00051364 -0.00037615 0.00041226
0.56988603 0.64524823 0.77271092 -0.00008594 0.00059458 0.00096151
0.79660636 0.73795605 0.46968478 0.00083221 0.00118189 -0.00040475
0.49489507 0.74656266 0.36406985 -0.00024280 0.00141609 -0.00059058
0.40736204 0.11230536 0.45361397 -0.00075410 -0.00013575 0.00074333
0.59450376 0.62373674 0.78990501 -0.00020400 0.00074442 0.00088533
0.30044135 0.40118286 0.45814204 -0.00108133 -0.00004836 0.00003589
0.79812288 0.43631792 0.45559353 0.00075950 -0.00055150 -0.00005047
0.40958610 0.15715009 0.30889806 -0.00081458 0.00064192 -0.00061084
0.35464305 0.49768639 0.66253638 -0.00087933 0.00035181 0.00026212
0.32354024 0.45135671 0.30189356 -0.00120373 0.00067233 -0.00068657
0.38646686 0.18804556 0.51726055 -0.00074147 -0.00077537 -0.00012446
0.57285476 0.77281743 0.58623171 0.00001383 -0.00004433 0.00009862
0.66785538 0.76147300 0.38534355 0.00011660 0.00114761 -0.00059242
0.38160643 0.25761276 0.33243191 -0.00045494 -0.00080804 -0.00041604
0.81090724 0.73146868 0.59875685 0.00121452 -0.00003889 0.00018435
0.30343151 0.34722111 0.58934242 -0.00063754 -0.00036641 -0.00027162
0.60975879 0.91153604 0.62380719 -0.00011693 0.00145513 -0.00119644
0.34973639 0.43389899 0.73018265 -0.00126589 0.00037043 -0.00009463
0.58805585 0.24817805 0.22093129 0.00042021 -0.00138647 -0.00123982
0.48890233 0.27593911 0.22195204 -0.00058699 -0.00070622 -0.00132282
0.75416940 0.42326099 0.23382825 0.00118862 -0.00019884 -0.00128682
0.52938235 0.16493650 0.69919026 -0.00095186 -0.00152800 0.00073488
0.30884850 0.42177153 0.52795941 -0.00089036 0.00020440 0.00025910
0.48643494 0.72211957 0.68646449 -0.00061311 0.00093405 0.00069209
0.61179578 0.86144108 0.62016809 0.00099724 0.00027799 0.00005349
0.17064363 0.06380234 0.32998815 0.00127221 -0.00132781 -0.00060790
0.18423462 0.12443730 0.32849982 -0.00172661 0.00056822 -0.00067607
0.27137896 0.53324848 0.54241562 -0.00101856 -0.00056840 0.00026493
0.53170443 0.67357713 0.74441242 -0.00015671 0.00080931 0.00076340
0.40051529 0.44901100 0.22995138 -0.00070803 -0.00037911 -0.00126778
0.82103711 0.46683371 0.63735086 0.00095037 -0.00054846 -0.00000936
0.44908589 0.71478504 0.39590722 -0.00072824 -0.00015792 -0.00004939
0.13755116 0.04545457 0.32175562 -0.00219907 -0.00231852 -0.00077216
0.58291030 0.70887673 0.29022694 -0.00045212 0.00101856 -0.00083855
0.75782311 0.38916695 0.28067395 0.00122347 -0.00051305 -0.00019165
0.43399420 0.10227914 0.31365710 -0.00009168 -0.00137780 -0.00176267
0.41825804 0.67054981 0.52685863 -0.00060791 0.00060808 0.00002043
0.46406382 0.10393984 0.32614285 0.00043983 -0.00148378 -0.00119428
0.36614633 0.59055305 0.45500880 -0.00052021 0.00020891 -0.00006673
0.52901733 0.44047984 0.83142835 -0.00083999 -0.00009427 0.00110236
0.69272089 0.23726965 0.70736426 0.00082398 -0.00127114 0.00003764
0.43329456 0.41684690 0.79216170 -0.00080970 -0.00028984 0.00103915
0.37889114 0.21370766 0.59674126 -0.00074073 -0.00112166 0.00014465
0.73046428 0.28602728 0.46188709 0.00081583 -0.00046831 -0.00031705
0.68138552 0.72816414 0.31628674 0.00021429 0.00121120 -0.00084389
0.67564183 0.48986620 0.16417204 0.00066529 -0.00023167 -0.00181749
0.36195397 0.11978080 0.30404103 -0.00098687 0.00003437 -0.00178566
0.52935755 0.38149658 0.82717514 -0.00019872 -0.00002994 0.00138878
0.25967962 0.54769242 0.48843363 -0.00144846 -0.00076480 -0.00068102
0.36242831 0.58208954 0.56235313 -0.00053264 0.00016688 0.00005161
0.34949756 0.22951931 0.46242228 -0.00064080 -0.00060020 -0.00035201
0.73735052 0.28046381 0.63330162 0.00099202 -0.00047198 -0.00011186
0.46324250 0.69733065 0.30565444 -0.00010259 0.00094801 -0.00117458
0.38994151 0.20670994 0.39702374 0.00000047 -0.00086038 -0.00037952
0.46071652 0.47554171 0.80650187 -0.00058999 -0.00000384 0.00116007
0.69437933 0.24930133 0.31158853 0.00141097 -0.00064842 0.00018384
0.76826620 0.36712256 0.46682075 0.00077117 -0.00042171 -0.00029754
0.70362031 0.75600296 0.38310489 0.00031132 0.00126756 -0.00046784
0.48865333 0.26783726 0.76995850 -0.00066649 -0.00070377 0.00110527
0.42563996 0.67353660 0.35057575 -0.00085773 0.00074292 -0.00022434
0.67790413 0.19188187 0.65915298 0.00075579 -0.00106566 0.00078284
0.61970729 0.66011912 0.23506419 0.00020281 0.00085048 -0.00127352
0.38155684 0.22223991 0.62096012 -0.00089966 -0.00093087 0.00042645
0.46737283 0.59327060 0.22911426 -0.00053086 0.00054449 -0.00122372
0.78767192 0.70127743 0.65754747 0.00036503 0.00030677 0.00045251
0.69767040 0.75967485 0.60221350 0.00011508 0.00039317 0.00008363
0.76992810 0.38923115 0.37179089 0.00084183 -0.00051491 -0.00020650
0.83047295 0.68402022 0.45555297 0.00133875 0.00043522 0.00005833
0.79259771 0.60285175 0.28712636 0.00110754 0.00021374 -0.00099615
0.57780647 0.78361535 0.52161056 0.00011691 0.00080116 -0.00010290
0.62512767 0.51702672 0.15984114 -0.00007184 0.00065965 -0.00165394
0.80864370 0.58857685 0.71845967 0.00128185 -0.00002467 0.00046438
0.48421314 0.74507207 0.65016222 -0.00090510 0.00091882 0.00051769
0.21268973 0.10010017 0.39001134 -0.00045830 -0.00089412 0.00149215
0.54550499 0.30146828 0.81146604 -0.00038352 -0.00074480 0.00130143
0.53384846 0.77945352 0.45188114 -0.00011060 0.00126440 0.00008449
0.84003043 0.51748639 0.64737481 0.00132512 -0.00025720 -0.00019805
0.80612111 0.71897954 0.63459617 0.00081483 0.00017436 0.00049459
0.52504808 0.77447587 0.42997763 -0.00045982 0.00122866 -0.00052906
0.73832393 0.62513614 0.23393303 0.00094721 0.00113176 -0.00113910
0.83465397 0.55298096 0.36218381 0.00135445 -0.00029642 -0.00028099
0.77408665 0.67393768 0.30154657 0.00125974 0.00075132 -0.00096768
0.64019126 0.14720500 0.56045467 -0.00018683 -0.00147414 -0.00006054
0.56513822 0.55930495 0.18264939 0.00000279 0.00049752 -0.00147996
0.53315216 0.48698980 0.17008930 -0.00051184 0.00003848 -0.00150611
0.42404574 0.58484203 0.24233344 -0.00070962 0.00034543 -0.00129363
0.70407999 0.21659081 0.62126994 0.00104976 -0.00079771 -0.00011057
0.61170566 0.14187138 0.61040211 0.00076935 -0.00132242 0.00013019
0.63863415 0.14381371 0.53652316 0.00034671 -0.00135864 0.00018954
0.55103016 0.75296551 0.36599532 -0.00041669 0.00112936 -0.00061400
0.40520787 0.62245578 0.30889246 -0.00073947 0.00021075 0.00041966
0.51115060 0.69621867 0.29066181 -0.00032681 0.00068775 -0.00124762
0.47687289 0.77772176 0.50826299 -0.00102550 0.00055370 -0.00042675
0.31134295 0.13772522 0.38848358 -0.00035661 0.00042956 -0.00001396
0.47713655 0.18716000 0.69421709 -0.00065864 -0.00132010 0.00073369
0.48023713 0.34423882 0.79941857 -0.00070828 -0.00016336 0.00120429
0.45277575 0.62735450 0.76211911 -0.00064405 0.00093886 0.00096901
0.69769967 0.65713680 0.76134396 0.00024145 0.00096180 0.00069560
0.69969726 0.22506785 0.45259207 0.00081700 -0.00079242 -0.00013713
0.49181026 0.11468602 0.45625263 -0.00051201 -0.00060065 0.00006376
0.63387966 0.39309111 0.15942764 0.00058238 -0.00074818 -0.00173885
0.68261248 0.70426303 0.71334118 0.00011763 0.00075691 0.00040378
0.46453589 0.64710051 0.26142821 -0.00055204 0.00102151 -0.00095416
0.28744632 0.33210009 0.45030832 -0.00013280 -0.00008113 -0.00122270
0.83580422 0.51366705 0.53248519 0.00093356 -0.00041477 -0.00016679
0.61019254 0.16755939 0.68416274 0.00058278 -0.00127503 0.00080053
0.42021394 0.16773288 0.57719135 -0.00068163 -0.00116086 0.00022649
0.62281239 0.13592930 0.51226151 -0.00004950 -0.00140909 0.00029665
0.66561669 0.45863834 0.16085175 0.00045180 -0.00015492 -0.00186680
0.59548277 0.69030142 0.26607683 -0.00045001 0.00093383 -0.00105859
0.46613914 0.25503042 0.74817771 -0.00073365 -0.00076057 0.00102308
0.63454664 0.77652413 0.56391245 -0.00012811 0.00052743 0.00017083
0.35027269 0.51387095 0.61571431 -0.00081439 0.00006274 0.00004492
0.36957365 0.22967367 0.39575285 -0.00020533 -0.00086448 -0.00020408
0.33034420 0.61545914 0.53527480 0.00031059 -0.00017569 -0.00024588
0.32021320 0.35491511 0.68990874 -0.00102641 -0.00122299 0.00078349
0.73970634 0.91879177 0.63632560 0.00050534 0.00170301 -0.00139039
0.15000649 0.06952018 0.31666872 -0.00034067 0.00271192 -0.00229269
0.75236446 0.34978765 0.37440139 0.00078854 -0.00065594 -0.00009923
0.76171237 0.56691444 0.23612440 0.00126678 0.00020897 -0.00108515
0.65375626 0.73564076 0.67065966 -0.00004124 0.00048669 0.00029703
0.71880215 0.43027902 0.20432647 0.00074240 -0.00053807 -0.00124591
0.31820324 0.46136490 0.43838257 -0.00090084 0.00011351 -0.00004637
0.69662595 0.26354465 0.73478508 0.00014627 -0.00076421 0.00103961
0.66211504 0.78070515 0.49363431 0.00017168 0.00092232 -0.00007951
0.38093382 0.53191340 0.70986205 -0.00083622 0.00057681 0.00015104
0.60190707 0.51695579 0.83729941 0.00025908 0.00013789 0.00139597
0.73314357 0.88404989 0.70138049 -0.00010170 0.00033669 0.00168697
0.67568910 0.61629850 0.20432307 0.00016555 0.00089296 -0.00150064
0.66590625 0.19153260 0.35042593 0.00120986 -0.00095647 -0.00055908
0.77791500 0.47560486 0.77057815 0.00090697 0.00013731 0.00102032
0.30491307 0.41270527 0.50530320 -0.00103829 -0.00017475 0.00009643
0.41365224 0.06481970 0.37607449 -0.00016704 -0.00220481 -0.00029524
0.52225059 0.26786542 0.78705674 -0.00043232 -0.00088828 0.00124126
0.42276472 0.15567078 0.50548685 -0.00048632 -0.00085235 -0.00000734
0.40770566 0.20596857 0.36374986 -0.00034574 -0.00059205 -0.00016425
0.56044680 0.11122487 0.52819937 0.00043480 -0.00156059 0.00027340
0.71674037 0.50573075 0.82851475 0.00035731 0.00040740 0.00160230
0.57074457 0.12569468 0.61071420 0.00026928 -0.00169323 0.00032475
0.54695833 0.51959670 0.82657343 -0.00029188 0.00001149 0.00124321
0.85587925 0.59456170 0.59818226 0.00140973 0.00044886 0.00023774
0.53051466 0.14763764 0.33855760 -0.00001865 -0.00081586 -0.00055030
0.38209763 0.34933588 0.26619965 -0.00078237 -0.00024706 -0.00112414
0.39110762 0.15310536 0.42402321 -0.00043806 0.00005678 -0.00014610
0.37534216 0.56838137 0.62344211 -0.00082798 0.00004079 0.00006294
0.70520210 0.27630079 0.29215580 0.00126600 -0.00087036 0.00011467
0.43899208 0.68369007 0.29920986 -0.00104524 0.00114648 -0.00090072
0.63921326 0.60882646 0.80150741 -0.00005435 0.00024046 0.00126276
0.74813378 0.32807788 0.43745080 0.00085196 -0.00035261 -0.00014826
0.76419103 0.37233114 0.39021191 0.00080568 -0.00056146 -0.00003884
0.53032875 0.19908014 0.73903596 -0.00048960 -0.00127471 0.00102004
0.43429279 0.68572938 0.57881373 -0.00081356 0.00050409 -0.00009639
0.77437615 0.73840898 0.40299958 0.00069634 0.00140101 -0.00049144
0.76197040 0.34017831 0.55398315 0.00084137 -0.00039085 0.00029500
0.75062144 0.82124716 0.65720165 -0.00089242 -0.00010295 -0.00032142
0.35618880 0.44384408 0.75440598 -0.00123400 0.00067077 0.00075145
0.44480005 0.28639010 0.75360149 -0.00079299 -0.00037956 0.00113368
0.46566367 0.44384858 0.80929041 -0.00060798 0.00001300 0.00119386
0.33260545 0.12610364 0.40996125 -0.00058723 0.00018274 0.00019459
0.55525178 0.68928963 0.73266917 -0.00003150 0.00068235 0.00078982
0.79165357 0.74343276 0.50958681 0.00059675 0.00109870 0.00002431
0.34864804 0.53237981 0.27587661 -0.00115429 0.00005239 0.00050379
0.62070209 0.69428420 0.73119891 -0.00006159 0.00067079 0.00064147
0.56020683 0.75418121 0.63872766 0.00031080 -0.00011440 0.00021479
0.65777510 0.58804959 0.18659271 0.00029686 0.00038370 -0.00171674
0.82651156 0.48380697 0.58804113 0.00091298 -0.00042995 -0.00022336
0.73747665 0.49294537 0.20878580 0.00094894 -0.00043727 -0.00124202
0.30937356 0.55311954 0.49538627 -0.00055920 -0.00038783 0.00000248
0.74459833 0.75992608 0.55594015 0.00040601 0.00045370 0.00017995
0.20049244 0.07505211 0.35037524 0.00046102 -0.00136468 -0.00032505
0.40818563 0.60285288 0.68641043 -0.00091830 0.00019519 0.00061198
0.32517731 0.07206981 0.37425718 -0.00022682 -0.00199596 0.00051482
0.48241386 0.74984920 0.51702619 -0.00024659 -0.00028615 -0.00066336
0.71223032 0.36621222 0.22472252 0.00069509 -0.00101641 -0.00090137
0.64764524 0.76862174 0.40163291 -0.00000594 0.00120484 -0.00035771
0.46370891 0.71938181 0.33111820 -0.00101326 0.00108761 -0.00074822
0.57045275 0.14480184 0.35899308 0.00046359 -0.00116328 -0.00063547
0.70903844 0.22597255 0.64376384 0.00101631 -0.00092474 0.00038664
0.31271073 0.60829353 0.47936621 -0.00021395 0.00075390 -0.00062707
0.57169205 0.74515659 0.34636652 0.00003175 0.00111457 -0.00069330
0.17473455 0.09579516 0.33693516 -0.00110186 0.00033406 0.00117734
0.30662334 0.54349327 0.53666961 0.00013911 -0.00004169 -0.00020748
0.39368206 0.60664296 0.61710012 -0.00073166 0.00036888 -0.00000780
0.48393375 0.53478980 0.80614024 -0.00046657 0.00027660 0.00115880
0.40358207 0.18453261 0.40113267 -0.00036017 -0.00028130 -0.00027174
0.38988405 0.40063867 0.76492786 -0.00098955 -0.00018434 0.00100417
0.51295668 0.62733537 0.77568531 -0.00026368 0.00065646 0.00100178
0.39311987 0.61496341 0.28636473 -0.00100680 0.00101849 0.00011589
0.60350466 0.15196294 0.65552288 0.00053330 -0.00152946 0.00041675
0.18332316 0.09392380 0.38260126 -0.00056459 -0.00032585 0.00172053
0.67523956 0.28566226 0.24690321 0.00080462 -0.00095087 -0.00078833
0.38014290 0.15645044 0.40068763 -0.00036036 0.00006112 0.00004431
0.64609492 0.62835610 0.78947455 0.00012534 0.00089996 0.00084223
0.74681896 0.34659356 0.33742639 0.00085114 -0.00069562 -0.00023737
0.34520945 0.38844588 0.28277069 -0.00068511 -0.00101044 -0.00106327
0.45252448 0.67787313 0.67613184 -0.00069653 0.00071202 0.00049977
0.70053893 0.38321811 0.20519514 0.00082622 -0.00042377 -0.00122128
0.77742380 0.74669224 0.65478712 -0.00054257 -0.00027257 0.00055621
0.79527581 0.40570638 0.64191055 0.00086882 -0.00056140 -0.00008259
0.77071226 0.38011640 0.42397815 0.00072612 -0.00063175 -0.00005257
0.53822333 0.76235634 0.38921368 -0.00036568 0.00122916 -0.00046194
0.59342664 0.66624814 0.24354011 -0.00031289 0.00108522 -0.00097019
0.33104610 0.49240908 0.28390521 -0.00124753 0.00034668 -0.00006249
0.32935500 0.27064940 0.40961200 -0.00037566 -0.00097003 -0.00043024
0.28151333 0.33538774 0.40578696 -0.00182561 -0.00063843 0.00061467
0.32442018 0.44404238 0.60346973 -0.00092589 0.00003599 0.00026840
0.66582966 0.35797176 0.83151847 0.00024936 -0.00055276 0.00159534
0.52860159 0.52432191 0.18040505 -0.00040991 0.00033659 -0.00142540
0.27372241 0.15094440 0.35570320 -0.00025691 0.00069312 0.00004834
0.74919736 0.76364517 0.50475907 0.00026397 0.00102916 0.00016298
0.61523885 0.73448932 0.32320338 -0.00017147 0.00120603 -0.00059626
0.70231789 0.21534921 0.56869173 0.00096963 -0.00066796 -0.00007341
0.50594884 0.56614494 0.80283684 -0.00020937 0.00024909 0.00120151
0.78203636 0.38212189 0.57316130 0.00064382 -0.00078768 -0.00009679
0.64978588 0.92284667 0.63053453 0.00020709 0.00023173 -0.00113969
0.55086792 0.50956255 0.16982791 -0.00061700 0.00035685 -0.00142915
0.52264601 0.11979205 0.41394967 0.00026922 -0.00058184 -0.00016522
0.39660686 0.17936234 0.37298179 -0.00028379 0.00018726 -0.00012576
0.50940204 0.48641521 0.17839283 -0.00051561 0.00003863 -0.00145791
0.65651667 0.54546946 0.83137876 -0.00010451 -0.00003514 0.00152648
0.68871450 0.45821133 0.17292400 0.00124428 0.00007618 -0.00137378
0.68367827 0.43351930 0.17372505 0.00113751 -0.00050931 -0.00132068
0.82573080 0.67690080 0.60666496 0.00083394 0.00064494 0.00042725
0.47922990 0.13334247 0.59569234 -0.00099883 -0.00130981 0.00020620
0.31792155 0.27713791 0.58751494 -0.00110732 -0.00061293 0.00056678
0.34317243 0.52006310 0.37337387 -0.00083636 0.00048667 -0.00033502
0.33682704 0.46329600 0.63739145 -0.00089353 0.00022634 0.00036390
0.56913120 0.53193933 0.17116301 -0.00001387 0.00027939 -0.00162308
0.79508883 0.73727441 0.54257452 0.00043555 0.00068391 0.00029721
0.60996723 0.92150366 0.64501560 -0.00093042 0.00188715 -0.00028952
0.82873333 0.50067204 0.50136214 0.00085596 -0.00051758 -0.00015232
0.30178094 0.32658619 0.63939691 -0.00120310 -0.00101121 0.00070494
0.57152760 0.16431458 0.31878346 0.00011852 -0.00141816 -0.00063407
0.85942823 0.57894158 0.57141262 0.00133820 -0.00061933 0.00017681
0.57207066 0.80242962 0.58270299 0.00031022 0.00019555 -0.00033277
0.40577906 0.49076188 0.78348637 -0.00096592 0.00043574 0.00113300
0.64901865 0.15319099 0.42386997 0.00057550 -0.00156019 -0.00048253
0.68911338 0.20173796 0.47267717 0.00099034 -0.00063401 -0.00017842
0.29280701 0.36253476 0.46406269 -0.00078568 0.00021109 0.00036860
0.50425315 0.59605002 0.79058772 -0.00018643 0.00048900 0.00113574
0.37330177 0.12668724 0.43011734 -0.00075575 0.00021944 0.00018900
0.45255944 0.16864434 0.30665490 -0.00045980 -0.00023999 -0.00073165
0.65641296 0.71532583 0.29474151 -0.00007573 0.00101651 -0.00105015
0.41496366 0.59962159 0.76018578 -0.00137127 0.00078770 0.00064378
0.56450731 0.15545672 0.68867284 0.00007133 -0.00153332 0.00096126
0.46999347 0.50597864 0.19828191 -0.00062978 0.00022459 -0.00129806
0.20249452 0.08586475 0.32861474 0.00015515 -0.00100288 -0.00116415
0.72538304 0.59061277 0.79900956 0.00023113 0.00035370 0.00147167
0.50990117 0.42698237 0.17305918 -0.00059679 0.00033136 -0.00147618
0.40813267 0.63886678 0.32643917 -0.00112132 0.00001087 -0.00038445
0.40635705 0.17060475 0.53330880 -0.00061541 -0.00102690 -0.00006639
0.29376131 0.29709905 0.56546390 -0.00131689 -0.00042052 0.00068042
0.78730690 0.62237352 0.73620349 0.00080135 0.00078186 0.00094657
0.35584971 0.51341915 0.64093256 -0.00075477 0.00035090 0.00032161
0.39284268 0.62303263 0.36192691 -0.00097659 0.00039506 -0.00040362
0.30877301 0.42891011 0.41751444 -0.00097135 0.00033942 -0.00024880
0.46875301 0.32683858 0.21052541 -0.00062846 -0.00044067 -0.00132586
0.77386689 0.36552492 0.73309612 0.00125470 -0.00059846 0.00050639
0.29682922 0.07913175 0.39346570 -0.00048053 -0.00194004 0.00076651
0.64869195 0.27939123 0.22930694 0.00097124 -0.00089665 -0.00091183
0.50208658 0.68376219 0.73096901 0.00010593 0.00075860 0.00098841
0.39155152 0.18255307 0.49488944 -0.00059533 -0.00072132 -0.00014412
0.75377727 0.72245312 0.34137878 0.00068663 0.00117587 -0.00098215
0.38413918 0.19268855 0.54159319 -0.00096818 -0.00068825 0.00008384
0.55017722 0.10906169 0.50636792 -0.00007634 -0.00164920 -0.00028749
0.42322215 0.66565442 0.29016387 -0.00089766 0.00129617 -0.00095595
0.35075152 0.52646935 0.32964453 -0.00095063 0.00002845 -0.00056808
0.59895068 0.77454567 0.57885319 -0.00023459 0.00025900 0.00026866
0.72195232 0.29283801 0.73825860 0.00049940 -0.00091048 0.00078867
0.75544477 0.48565131 0.23026685 0.00097045 0.00006872 -0.00089106
0.48693404 0.23081160 0.25424796 -0.00084953 -0.00082361 -0.00084972
0.43238193 0.27250054 0.73513091 -0.00073224 -0.00080741 0.00089740
0.29459617 0.40028599 0.33375460 -0.00155922 0.00003363 -0.00030278
0.49773541 0.56266695 0.20366623 -0.00050241 0.00051865 -0.00128324
0.38812983 0.08761895 0.44124767 -0.00001240 -0.00032170 0.00174995
0.34197593 0.39315420 0.72998995 -0.00115582 -0.00012600 0.00112124
0.51967722 0.78121668 0.54220945 -0.00005575 0.00087420 0.00027058
0.36986995 0.59891742 0.54825741 -0.00058460 0.00017576 0.00003028
0.58301848 0.23777778 0.78357536 0.00018410 -0.00140380 0.00126561
0.40387502 0.56556582 0.77040011 -0.00148655 -0.00010427 0.00067029
0.29901269 0.28430125 0.53603756 -0.00093992 -0.00095042 -0.00010249
0.64369172 0.16052672 0.39742595 0.00059104 -0.00130422 -0.00054134
0.73838478 0.69111264 0.28729087 0.00071128 0.00110178 -0.00114093
0.33961105 0.43361396 0.68754166 -0.00094408 0.00009421 0.00063467
0.71711105 0.41145918 0.81924570 0.00069393 -0.00008398 0.00138743
0.40956807 0.65939921 0.50813001 -0.00075153 0.00029682 0.00002775
0.47228849 0.12257044 0.48799759 -0.00063766 -0.00074082 -0.00026597
0.78738463 0.40751019 0.48071486 0.00075624 -0.00046872 -0.00022143
0.57573795 0.80753672 0.66208124 0.00002295 -0.00049226 0.00090791
0.44639882 0.70467091 0.37325332 -0.00103343 -0.00044684 -0.00000146
0.35678142 0.08561348 0.32802099 -0.00073194 -0.00158193 -0.00123533
0.35916770 0.55292463 0.35234913 -0.00103173 0.00024788 0.00011279
0.35723439 0.30894032 0.69225901 -0.00113247 -0.00041135 0.00076357
0.49489057 0.11294305 0.52677411 -0.00020752 -0.00156057 -0.00001881
0.82916594 0.69593471 0.52084112 0.00110574 0.00058932 0.00014105
0.41724405 0.59611434 0.72263622 -0.00096923 0.00013572 -0.00041125
0.84532464 0.65072268 0.52071375 0.00114357 0.00029776 -0.00009047
0.71185851 0.31640226 0.76930052 0.00090398 -0.00071361 0.00065599
0.71470451 0.76507151 0.42298552 0.00012189 0.00122422 -0.00028542
0.75846308 0.90219599 0.63834798 0.00161409 0.00090721 -0.00098243
0.48905444 0.65936202 0.74926275 -0.00041293 0.00083963 0.00094163
0.69649863 0.54148668 0.17988004 0.00066084 0.00031778 -0.00168813
0.58835548 0.32446131 0.82887524 -0.00017157 -0.00055525 0.00154260
0.65629011 0.25805554 0.77145576 0.00047158 -0.00114946 0.00104042
0.67161626 0.66148126 0.23675533 -0.00014608 0.00112796 -0.00117001
0.84934801 0.62892735 0.46634421 0.00111735 0.00055807 0.00012405
0.76414937 0.41738206 0.25551096 0.00144454 -0.00071079 -0.00036590
0.57668883 0.26992160 0.20190638 0.00035948 -0.00094178 -0.00165806
0.76833606 0.78062856 0.61775696 -0.00064703 0.00001397 0.00032171
0.66461396 0.76914108 0.58459580 0.00002432 0.00045655 0.00017552
0.79096740 0.71993840 0.38817152 0.00125677 0.00082906 -0.00080706
0.36273140 0.53008366 0.25662974 -0.00061452 0.00026155 -0.00141694
0.33509311 0.30546230 0.66282254 -0.00091144 -0.00086606 0.00055262
0.55747581 0.24511012 0.78507274 -0.00065238 -0.00081507 0.00141255
0.39036965 0.08369588 0.32718953 -0.00009428 -0.00174217 -0.00134665
0.71846634 0.26254869 0.72015190 0.00098196 -0.00108256 0.00069662
0.41698378 0.62343931 0.67736447 -0.00085555 0.00067896 0.00002519
0.59749281 0.72158891 0.69623160 -0.00000546 0.00060258 0.00046596
0.71721584 0.73452312 0.65531331 0.00022374 0.00040917 0.00003853
0.73226136 0.45816064 0.20998910 0.00087273 -0.00029040 -0.00120024
0.29399344 0.57240021 0.58135211 0.00021382 -0.00049548 0.00155518
0.71895307 0.40413469 0.21386483 0.00068090 -0.00036065 -0.00119340
0.50743264 0.12188768 0.35104895 0.00095729 -0.00077041 -0.00033062
0.53258437 0.64653933 0.76613343 -0.00013397 0.00063648 0.00095433
0.67640340 0.27083531 0.76588219 0.00092260 -0.00089213 0.00079419
0.56296152 0.77310020 0.41703448 -0.00019376 0.00115880 -0.00050970
0.69437712 0.89645559 0.65659207 -0.00079507 -0.00057604 -0.00015724
0.54411125 0.80433249 0.60018212 -0.00079491 0.00045993 -0.00020477
0.75123668 0.68921757 0.70758837 0.00041951 0.00087868 0.00040527
0.24152002 0.14592963 0.33712783 -0.00077722 0.00054383 -0.00130657
0.29112378 0.53764588 0.51850772 0.00063633 -0.00007517 -0.00042257
0.51384562 0.75952834 0.62318528 0.00032079 0.00015444 0.00026643
0.42631146 0.52412474 0.22264382 -0.00058559 -0.00002772 -0.00136065
0.52294797 0.19474247 0.26951092 -0.00060893 -0.00119165 -0.00110340
0.60777926 0.66132468 0.76294833 0.00015869 0.00075174 0.00077624
0.59672779 0.18018031 0.30877528 0.00089408 -0.00106838 -0.00072879
0.35401434 0.23837829 0.41473380 -0.00036785 -0.00079618 -0.00022673
0.37117910 0.07678040 0.42852086 -0.00129853 -0.00149830 0.00079779
0.33716053 0.40807465 0.71228552 -0.00100953 0.00086124 0.00014509
0.71966410 0.24983874 0.56176049 0.00083470 -0.00066234 -0.00007507
0.59504002 0.39121407 0.84429491 -0.00044679 -0.00000350 0.00146544
0.54554892 0.26790711 0.20372368 -0.00035496 -0.00097770 -0.00161906
0.35273898 0.46717060 0.69841057 -0.00099427 0.00006678 0.00064381
0.17288458 0.09291430 0.31337881 -0.00079001 0.00021284 -0.00079048
0.46908313 0.37313107 0.19762954 -0.00058313 -0.00043032 -0.00137561
0.55489910 0.78062969 0.54839039 0.00000759 0.00053847 0.00027716
0.49570063 0.45836231 0.82019657 -0.00048605 0.00020962 0.00119376
0.38937593 0.23216134 0.65083820 -0.00085697 -0.00097036 0.00050013
0.30577162 0.40368629 0.55024600 -0.00107482 -0.00019212 0.00002132
0.82648563 0.55473739 0.32362363 0.00137225 0.00023152 -0.00088732
0.67839766 0.17395997 0.58982128 0.00114611 -0.00107185 0.00009376
0.66320676 0.29276252 0.79626387 0.00073283 -0.00124440 0.00085805
0.83960569 0.64437169 0.43199885 0.00117760 0.00039818 -0.00017417
0.46598369 0.27627826 0.76157159 -0.00066725 -0.00060638 0.00112183
0.45705032 0.19959953 0.69105119 -0.00099664 -0.00079825 0.00089818
0.28516147 0.13804971 0.32222205 -0.00076955 0.00011269 -0.00120518
0.32899109 0.39760339 0.67336023 -0.00030752 0.00035782 -0.00025112
0.44459274 0.69356197 0.34238377 -0.00101336 0.00044445 -0.00003287
0.44819921 0.16053686 0.61766118 -0.00059809 -0.00142357 0.00027290
0.35627785 0.48748216 0.68545502 -0.00095905 0.00049657 0.00014603
0.70105827 0.49894711 0.17840636 0.00109442 -0.00040147 -0.00145095
0.59736770 0.54385942 0.82838517 -0.00015127 0.00052219 0.00113614
0.79582107 0.43874705 0.41465947 0.00076259 -0.00060883 -0.00023324
0.31720838 0.63886905 0.54628801 0.00063354 0.00104126 0.00105294
0.30658841 0.37530777 0.67559552 -0.00148667 0.00022461 -0.00045165
0.59930444 0.64087224 0.22220217 0.00010510 0.00081116 -0.00128814
0.60359710 0.35587278 0.83897477 0.00014488 -0.00058167 0.00150940
0.66397738 0.17150496 0.40953198 0.00139215 -0.00072767 -0.00053432
0.51197982 0.28995490 0.20335752 -0.00046763 -0.00088767 -0.00140786
0.53344965 0.69484866 0.72423714 -0.00022078 0.00079129 0.00068695
0.38964632 0.31232145 0.27823585 -0.00073084 -0.00068500 -0.00082717
0.82183701 0.47204345 0.69039214 0.00137280 -0.00039351 0.00000322
0.61715990 0.49519756 0.15569727 -0.00030578 0.00037097 -0.00174074
0.77161014 0.36722168 0.51266032 0.00074264 -0.00052490 0.00006496
0.83736360 0.59993261 0.64328843 0.00103737 0.00003792 0.00040674
0.63431787 0.14507224 0.45987260 0.00037249 -0.00133892 -0.00015331
0.37300768 0.33535954 0.72601843 -0.00117543 -0.00050229 0.00071094
0.46231523 0.12829389 0.52209735 -0.00100844 -0.00091025 -0.00019639
0.34363553 0.53759634 0.44041845 -0.00064915 0.00013568 -0.00006148
0.72374934 0.25362211 0.62061310 0.00094895 -0.00064004 -0.00014701
0.61648047 0.23634465 0.24751724 0.00069162 -0.00133435 -0.00073332
0.57376742 0.13489503 0.38849711 0.00061177 -0.00120799 -0.00049885
0.73675787 0.31659266 0.37245676 0.00092446 -0.00042977 -0.00012748
0.32946315 0.41381165 0.28771448 -0.00135535 0.00012818 -0.00117298
0.62436825 0.20869736 0.28861696 0.00111402 -0.00092429 -0.00059731
0.41846985 0.08669733 0.44661173 -0.00048617 -0.00100268 0.00135918
0.49602172 0.43176958 0.82068437 -0.00036930 -0.00011654 0.00129738
0.42217433 0.21681163 0.67339182 -0.00088507 -0.00076617 0.00080064
0.53252578 0.60724467 0.79037255 -0.00015185 0.00040566 0.00110942
0.61275345 0.73505151 0.67534775 -0.00003250 0.00055914 0.00022491
0.45163330 0.35998175 0.21031809 -0.00079120 -0.00056565 -0.00120565
0.84292710 0.55865258 0.41077581 0.00124790 -0.00067596 -0.00006300
0.65460575 0.17456274 0.36825091 0.00067647 -0.00156559 -0.00017458
0.34113991 0.47254029 0.26704577 -0.00108576 -0.00047549 -0.00092140
0.40790173 0.65853047 0.47873417 -0.00071457 0.00040894 -0.00002543
0.78960186 0.40793270 0.50921047 0.00068815 -0.00065279 0.00000273
0.69089913 0.61755359 0.79287821 -0.00004995 0.00057962 0.00119570
0.46949211 0.16322285 0.65189731 -0.00078342 -0.00122168 0.00065895
0.41640353 0.35756618 0.23538755 -0.00086757 -0.00052965 -0.00101317
0.80416745 0.78234220 0.63978106 0.00149189 0.00027575 -0.00026103
0.72434986 0.28175274 0.41467300 0.00091325 -0.00038454 -0.00020669
0.74143577 0.39385501 0.78715932 0.00112206 -0.00069126 0.00057552
0.34319499 0.27115080 0.63161165 -0.00121079 -0.00057511 0.00042133
0.86233616 0.59481972 0.55272353 0.00153068 0.00006380 0.00012088
0.71804053 0.27574646 0.38036370 0.00096344 -0.00045996 -0.00013316
0.67102474 0.51934206 0.16609414 -0.00003801 0.00028065 -0.00196077
0.38066906 0.16505140 0.35543621 -0.00061514 0.00009336 -0.00023337
0.41578841 0.47327265 0.22086480 -0.00051055 0.00005690 -0.00140157
0.51642680 0.36919674 0.17566179 -0.00060531 -0.00045616 -0.00147411
0.80884314 0.44221041 0.58171266 0.00075930 -0.00063704 -0.00001325
0.43365735 0.64820236 0.68426758 -0.00102925 0.00038366 0.00039070
0.53939617 0.13825701 0.36011297 -0.00012522 -0.00103949 -0.00033273
0.40490705 0.53949702 0.75569373 0.00000928 -0.00017815 -0.00090057
0.43727955 0.63681173 0.70945311 -0.00097499 0.00033414 0.00044616
0.71649134 0.25433978 0.47890541 0.00079693 -0.00066386 0.00003537
0.82194746 0.50739151 0.38958323 0.00090497 -0.00067194 -0.00028307
0.55320013 0.66663802 0.75332552 -0.00004568 0.00072264 0.00081656
0.63254905 0.89237368 0.63372189 0.00068055 -0.00051750 0.00018796
0.58493948 0.35083321 0.16344197 0.00007753 -0.00075911 -0.00185078
0.73913515 0.28604308 0.60182929 0.00094344 -0.00038046 -0.00008886
0.81813478 0.52081013 0.32534292 0.00114788 -0.00104719 -0.00015375
0.55180639 0.19119798 0.27144539 0.00049022 -0.00131758 -0.00105058
0.28936732 0.09874365 0.41115439 -0.00063227 -0.00048448 0.00165379
0.68322426 0.70682627 0.28659233 0.00030965 0.00117398 -0.00094744
0.65365601 0.31122184 0.81475478 0.00033211 -0.00073164 0.00153350
0.73145008 0.30149421 0.39042711 0.00082334 -0.00058146 -0.00023769
0.80773562 0.68839175 0.64159614 0.00065932 0.00021013 0.00037430
0.56616127 0.85002899 0.62523353 -0.00085923 0.00117045 -0.00011740
0.62031007 0.23865093 0.77556026 0.00047357 -0.00129883 0.00107253
0.48347631 0.13918540 0.61930948 -0.00078709 -0.00133040 0.00066698
0.31752950 0.45355260 0.52574658 -0.00077624 0.00010925 0.00017589
0.57217544 0.36213478 0.83554059 -0.00047027 -0.00012056 0.00142496
0.30515081 0.38112253 0.59000158 -0.00098140 -0.00008680 0.00012090
0.81091058 0.71137792 0.58398062 0.00074708 -0.00000491 -0.00023012
0.74505913 0.86603338 0.62216115 -0.00091226 0.00050961 -0.00051306
0.73362571 0.56780344 0.20923761 0.00097766 0.00017105 -0.00148679
0.72023302 0.30239439 0.29917610 0.00117433 -0.00065729 0.00003643
0.83086383 0.57205880 0.67421883 0.00077520 0.00038710 0.00085051
0.44879636 0.24027559 0.72445238 -0.00089484 -0.00081088 0.00085019
0.62065482 0.36045831 0.16491450 0.00037059 -0.00068185 -0.00182938
0.34685102 0.53456110 0.39901906 -0.00081921 0.00029307 -0.00009986
0.80364579 0.42662299 0.61620784 0.00094194 -0.00028768 -0.00019522
0.68988740 0.19381635 0.55033833 0.00096015 -0.00085559 -0.00015044
0.67979580 0.21705499 0.33365884 0.00154487 -0.00060852 0.00003180
0.35512298 0.55764872 0.41594836 -0.00074611 0.00024639 -0.00004742
0.60399139 0.84556746 0.66878945 0.00038397 0.00025679 0.00075191
0.15778047 0.08069783 0.36783743 -0.00233152 -0.00039406 0.00086200
0.34623361 0.48680389 0.64296162 -0.00090976 0.00025411 0.00009041
0.29161727 0.34662282 0.62240225 -0.00144664 0.00029445 0.00009167
0.62709707 0.59594309 0.19069941 -0.00023217 0.00050294 -0.00160276
0.61750919 0.25921714 0.79367256 0.00057351 -0.00073637 0.00157461
0.75575119 0.33823591 0.47500265 0.00070308 -0.00062210 -0.00007788
0.80511051 0.51939166 0.28141755 0.00129561 -0.00021203 -0.00105271
0.28299713 0.30297238 0.53427994 -0.00136176 -0.00081386 -0.00044681
0.38323674 0.46412072 0.24037305 -0.00109254 -0.00005505 -0.00103645
0.51751739 0.24234191 0.76882052 -0.00047203 -0.00100817 0.00113551
0.63182122 0.17907280 0.34772751 0.00009863 -0.00119682 -0.00060494
0.79252338 0.66370863 0.31869444 0.00131555 0.00056030 -0.00086465
0.74282378 0.52646595 0.21287675 0.00114794 -0.00002273 -0.00115916
0.51563025 0.35820273 0.81805706 -0.00054417 -0.00064810 0.00117600
0.66119003 0.15911388 0.45368385 0.00114472 -0.00112555 -0.00002011
0.34802613 0.23114733 0.54679161 -0.00068267 -0.00101595 0.00019173
0.54705864 0.78359962 0.51815063 -0.00004246 0.00090086 -0.00016672
0.39301845 0.58784342 0.65666986 -0.00089799 0.00016030 0.00028891
0.43517157 0.45655853 0.79636532 -0.00057096 0.00001808 0.00121788
0.63515276 0.77497160 0.42653340 0.00028976 0.00116146 -0.00005370
0.73833406 0.91926050 0.68163341 0.00147640 0.00119611 0.00094297
0.36018738 0.31229779 0.30937350 -0.00081893 -0.00058583 -0.00073476
0.24976383 0.08637851 0.38530529 -0.00129191 -0.00133052 0.00119195
0.40272129 0.32606566 0.74432677 -0.00050302 -0.00062686 0.00114295
0.48942176 0.12002978 0.56534439 -0.00041648 -0.00160779 0.00033926
0.80132151 0.53482020 0.74079812 0.00117493 0.00004784 0.00060210
0.29997826 0.37617308 0.40160814 -0.00089632 -0.00001006 0.00012248
0.64482069 0.48582369 0.15518124 0.00030727 0.00002209 -0.00192099
0.38247058 0.40798563 0.24675563 -0.00085131 0.00026212 -0.00126646
0.62599522 0.68620932 0.25904870 0.00029471 0.00107992 -0.00100734
0.78572953 0.38590860 0.71237898 0.00124142 -0.00048563 0.00007738
0.68051910 0.19324401 0.43128455 0.00104553 -0.00069583 -0.00042421
0.77593881 0.79460150 0.59910053 -0.00009674 0.00037040 -0.00018058
0.54567844 0.71035045 0.70862722 -0.00022284 0.00079353 0.00055935
0.41469893 0.18374395 0.33180887 -0.00071868 0.00011977 0.00005752
0.43228167 0.39549768 0.21540047 -0.00079771 0.00001023 -0.00123699
0.76659650 0.66571528 0.72355103 0.00072322 0.00072418 0.00076057
0.62091732 0.28915831 0.20280094 0.00047856 -0.00111860 -0.00136972
0.60306644 0.20590323 0.27489752 0.00034210 -0.00119683 -0.00107550
0.75748628 0.82652336 0.62119782 -0.00109940 -0.00020242 -0.00031047
0.39036965 0.62583804 0.41126254 -0.00092557 0.00021733 -0.00014451
0.30364221 0.14749342 0.33448696 -0.00014873 0.00106000 0.00056578
0.37800336 0.61343116 0.52680904 -0.00057801 0.00019621 -0.00001198
0.26041085 0.56919593 0.51387942 -0.00210001 0.00013406 0.00029928
0.59221095 0.85996056 0.59959066 0.00022896 0.00080216 -0.00072221
0.65377092 0.77971148 0.53322315 -0.00012718 0.00075784 0.00005024
0.29413196 0.36633950 0.43927038 -0.00099069 0.00002545 -0.00008607
0.63270116 0.16791090 0.37372762 -0.00002219 -0.00109655 -0.00063669
0.51373744 0.28932169 0.79369736 -0.00070012 -0.00054280 0.00120309
0.81320447 0.45007229 0.69762194 0.00123023 -0.00049533 0.00030937
0.36518416 0.39953789 0.26253009 -0.00100358 -0.00027866 -0.00101255
0.37399358 0.58842027 0.27736041 -0.00159275 0.00031376 -0.00044554
0.80153334 0.75755894 0.58531803 0.00065888 0.00079719 -0.00037377
0.54633760 0.62746489 0.78140992 -0.00017681 0.00065718 0.00095981
0.49185422 0.23936412 0.75361502 -0.00081073 -0.00077028 0.00109262
0.32231334 0.45905858 0.35795653 -0.00099798 0.00025640 -0.00040444
0.54177684 0.24244669 0.22171883 -0.00027018 -0.00105293 -0.00160494
0.67016393 0.16472469 0.50928599 0.00121053 -0.00087129 -0.00030852
0.42203915 0.54496133 0.78383785 -0.00049666 -0.00042964 0.00121844
0.53090560 0.16131088 0.31389147 -0.00033282 -0.00108832 -0.00068407
0.37191936 0.57942271 0.34904012 -0.00098287 0.00030885 -0.00024407
0.67089629 0.76173437 0.60875833 -0.00001227 0.00039603 0.00018602
0.33439344 0.47105196 0.31754750 -0.00034985 0.00097399 -0.00017346
0.32718843 0.49123394 0.44919521 -0.00070224 0.00028059 -0.00010342
0.57029164 0.31519559 0.17670511 0.00019192 -0.00102317 -0.00165959
0.41457608 0.64614618 0.60781193 -0.00081235 0.00029179 0.00027987
0.31479618 0.32885304 0.66075176 -0.00110874 0.00021409 0.00086097
0.29261887 0.63043934 0.54669583 -0.00157496 0.00124119 0.00072940
0.37348768 0.58841127 0.37703779 -0.00093046 0.00031697 -0.00007224
0.57289648 0.37680063 0.15839335 -0.00039037 -0.00010744 -0.00186844
0.17851676 0.06523995 0.35165513 0.00046589 -0.00229810 -0.00029950
0.66024476 0.35163203 0.18792896 0.00104579 -0.00072711 -0.00117080
0.31243807 0.60924786 0.57400066 -0.00021072 0.00043747 0.00075080
