0.41355002 0.60641736 0.26087928 -0.00016289 0.00014608 -0.00017813
0.60183030 0.40945783 0.84169096 -0.00001655 -0.00004473 0.00029896
0.41848558 0.56605899 0.74238622 -0.00003209 0.00000230 0.00017134
0.34396642 0.41719973 0.71415049 0.00010895 -0.00003637 -0.00027097
0.50125700 0.14206195 0.62476915 -0.00012383 -0.00033872 0.00009023
0.70759499 0.88767922 0.69712347 -0.00016802 -0.00011608 0.00013987
0.28453413 0.32615611 0.57615411 -0.00018818 -0.00012388 0.00009368
0.53503644 0.24926423 0.22659282 -0.00003231 -0.00025304 -0.00027539
0.84130853 0.53710169 0.65862197 0.00031102 -0.00011904 0.00001163
0.41340327 0.64846790 0.57610184 -0.00014864 0.00007705 -0.00000341
0.51387548 0.72260571 0.68510979 -0.00001297 0.00016745 0.00010020
0.38829190 0.60148066 0.59402394 -0.00014431 0.00004823 -0.00001821
0.78737885 0.45081684 0.32285440 0.00021457 -0.00010308 -0.00002289
0.41915381 0.39659581 0.77438223 -0.00013116 -0.00006705 0.00023627
0.72238386 0.26640692 0.70352781 0.00031193 -0.00017680 0.00006580
0.55890810 0.15972830 0.68332303 0.00001401 -0.00036785 0.00017616
0.59124768 0.30574453 0.18901078 0.00004873 -0.00019049 -0.00035556
0.65316379 0.91053915 0.63792354 0.00015079 -0.00005720 -0.00002082
0.67938596 0.40588209 0.83474296 0.00019449 -0.00009896 0.00029036
0.60533381 0.33929718 0.82920700 -0.00003293 -0.00008706 0.00033356
0.40301180 0.63588053 0.36181289 -0.00019380 0.00010063 -0.00006488
0.79140258 0.69209063 0.35042298 0.00028648 0.00016663 -0.00013671
0.39325079 0.63171327 0.48701510 -0.00012404 0.00006720 0.00002099
0.39984524 0.12794021 0.44884491 -0.00015359 0.00000118 0.00009664
0.61927992 0.75673419 0.62677050 -0.00001656 0.00010025 0.00002114
0.65991509 0.15770471 0.51590794 0.00031849 -0.00019275 0.00000976
0.75733298 0.41015607 0.25588590 0.00028985 -0.00020716 -0.00005286
0.31642234 0.37393832 0.68697888 -0.00020201 -0.00011292 0.00010236
0.81550777 0.46153742 0.64185065 0.00020471 -0.00007963 0.00002284
0.69865346 0.62549245 0.78184283 0.00005981 0.00017008 0.00019481
0.44598746 0.18750258 0.64730102 -0.00018152 -0.00025761 0.00005366
0.37694868 0.39708838 0.26072249 -0.00017451 -0.00008720 -0.00020947
0.40239027 0.60622609 0.64244217 -0.00017694 0.00005138 0.00002982
0.39963290 0.63255942 0.37695757 -0.00019140 0.00009868 0.00000698
0.83363891 0.66457212 0.57813209 0.00023111 0.00007682 0.00001168
0.61196941 0.86142713 0.61616999 0.00022837 0.00003172 0.00002558
0.69433385 0.24596868 0.34462017 0.00023081 -0.00013528 -0.00005530
0.30160010 0.38650677 0.50610131 -0.00021402 0.00002368 -0.00002312
0.77082658 0.80372816 0.60213166 -0.00019791 0.00004560 -0.00000252
0.37411678 0.53287107 0.67041767 -0.00017242 0.00008116 0.00005392
0.16353922 0.06187788 0.35693181 0.00040465 -0.00027772 0.00008908
0.61992925 0.76748490 0.59623319 -0.00003233 0.00009734 0.00002346
0.41842553 0.48418713 0.22534418 -0.00010464 -0.00003726 -0.00028479
0.34568650 0.49951857 0.32090753 -0.00018345 0.00002112 -0.00008899
0.72514576 0.26637912 0.58478332 0.00016518 -0.00014731 -0.00000312
0.74233067 0.29797378 0.66013187 0.00021579 -0.00009697 0.00000698
0.76859611 0.36926630 0.50632149 0.00015956 -0.00007832 -0.00002546
0.80723554 0.75465953 0.61229628 0.00022708 0.00009644 0.00006274
0.69416821 0.24164911 0.35833055 0.00022392 -0.00013697 -0.00004220
0.63382858 0.77562368 0.43596956 0.00000385 0.00023350 -0.00003901
0.41414377 0.62738931 0.29819220 -0.00008330 -0.00015208 0.00006183
0.49187952 0.11484136 0.34778011 0.00019502 -0.00027572 -0.00015929
0.61826032 0.92342997 0.67295831 -0.00030478 0.00022313 0.00015158
0.56180447 0.25635901 0.21761787 -0.00002570 -0.00026501 -0.00030512
0.79033971 0.40995371 0.56273288 0.00016686 -0.00007403 -0.00000727
0.45946100 0.66353804 0.70119625 -0.00002782 0.00001824 0.00005748
0.83926600 0.54087979 0.47460899 0.00020984 -0.00006256 -0.00004126
0.45840028 0.69012713 0.65850854 -0.00008592 0.00007994 0.00003948
0.58587295 0.45183754 0.15746729 -0.00006146 -0.00002086 -0.00035812
0.38170522 0.60029989 0.38610592 -0.00018102 0.00007597 -0.00002526
0.75565630 0.58322608 0.78184730 0.00014902 0.00010280 0.00028083
0.78574878 0.77440065 0.66548771 -0.00001647 0.00004048 0.00028268
0.18462119 0.13139808 0.33564633 -0.00036198 0.00009789 0.00005475
0.77472699 0.41508716 0.34322813 0.00020735 -0.00007118 0.00000684
0.55739260 0.54816914 0.81684202 -0.00000507 0.00007174 0.00025078
0.79254568 0.68065965 0.34079203 0.00027309 0.00011318 -0.00016821
0.61701721 0.16016857 0.39322516 0.00011860 -0.00022193 -0.00011159
0.78155380 0.41560307 0.40748703 0.00017170 -0.00007962 -0.00002458
0.27785185 0.15382098 0.37630266 -0.00007497 0.00012214 0.00003197
0.80222446 0.78505003 0.63485926 0.00025598 0.00009412 0.00001688
0.29447639 0.31345308 0.43598294 -0.00016940 -0.00014534 -0.00005794
0.38881555 0.35660663 0.26476300 -0.00017799 -0.00009505 -0.00019081
0.77059084 0.42602569 0.75741857 0.00019063 -0.00009800 0.00013199
0.68554121 0.66286433 0.75487798 0.00003001 0.00020442 0.00013526
0.74543279 0.57940805 0.22615807 0.00027041 0.00007808 -0.00023980
0.21735996 0.14088894 0.38613153 -0.00021365 0.00016799 0.00025371
0.55380571 0.81016922 0.58733165 -0.00013369 0.00019614 -0.00009710
0.41778511 0.22053042 0.34239647 -0.00003629 -0.00016834 -0.00000579
0.71410275 0.37726387 0.22699198 0.00006137 -0.00008192 -0.00021616
0.42206353 0.16580796 0.52685529 -0.00013694 -0.00019927 -0.00001024
0.72995567 0.37371373 0.23457375 0.00018891 -0.00014267 -0.00027589
0.64607573 0.18916260 0.66912687 0.00014921 -0.00024022 0.00008505
0.71904606 0.74646962 0.62231863 0.00006702 0.00010012 0.00003211
0.59554392 0.44353303 0.15594737 -0.00000873 0.00006887 -0.00037387
0.49496052 0.19748932 0.70715803 -0.00014440 -0.00020703 0.00021150
0.63081104 0.77182108 0.41846222 0.00001702 0.00022806 -0.00008476
0.44602749 0.15076113 0.54588258 -0.00015781 -0.00021681 0.00000013
0.65663064 0.77907044 0.52588022 0.00000153 0.00017596 0.00002436
0.36296704 0.50409836 0.67323405 -0.00020305 0.00004423 0.00002038
0.53517652 0.46013868 0.82843202 -0.00009873 0.00002580 0.00025660
0.36794370 0.13696073 0.30678356 -0.00013778 0.00005731 -0.00036111
0.49019617 0.16790935 0.66409451 -0.00010292 -0.00032377 0.00009583
0.42650542 0.32851881 0.75479567 -0.00014303 -0.00013344 0.00020199
0.77342939 0.37488785 0.54059684 0.00015443 -0.00009565 -0.00001713
0.81168300 0.71533859 0.45837802 0.00028311 0.00013232 -0.00000246
0.66801053 0.20069036 0.66369092 0.00011287 -0.00023077 0.00008721
0.80779260 0.46283606 0.47715956 0.00015459 -0.00011262 -0.00000418
0.81606150 0.47041562 0.55606616 0.00016964 -0.00008608 -0.00001779
0.70810425 0.64009225 0.76909316 0.00007075 0.00015726 0.00019975
0.41898814 0.23150449 0.67439705 -0.00017442 -0.00020820 0.00010937
0.57094395 0.29994285 0.81033874 -0.00007258 -0.00014478 0.00030598
0.75068849 0.32853326 0.73404503 0.00026117 -0.00018411 0.00018979
0.46993253 0.65750396 0.27120847 -0.00006927 0.00017056 -0.00022461
0.38599366 0.57245886 0.27723917 0.00005368 -0.00019716 0.00014649
0.47188714 0.76579928 0.42563593 -0.00032905 0.00031949 -0.00002660
0.36532643 0.08672129 0.42788854 -0.00020975 -0.00020898 0.00031792
0.45974341 0.21622084 0.29917178 -0.00011463 -0.00011229 -0.00008784
0.40197781 0.47545680 0.77642250 -0.00009329 0.00000270 0.00025947
0.74094862 0.51376927 0.80843520 0.00023681 0.00000696 0.00024147
0.50609136 0.73245013 0.67048103 -0.00003791 0.00017305 0.00007472
0.45891953 0.09404177 0.44213706 0.00004947 -0.00029567 0.00020114
0.22469266 0.14921898 0.33928990 -0.00023039 0.00025231 -0.00017857
0.38674751 0.38508919 0.75090194 -0.00018836 -0.00001476 0.00021706
0.44706374 0.45136833 0.20757665 -0.00014599 -0.00000403 -0.00027421
0.39792728 0.40216625 0.24311727 -0.00015441 -0.00001705 -0.00025418
0.28492886 0.32427594 0.43981439 -0.00021082 -0.00009008 0.00002174
0.55186218 0.77542907 0.43680456 -0.00001174 0.00023903 -0.00003234
0.68736690 0.19810307 0.53447598 0.00021407 -0.00014665 -0.00002383
0.46829697 0.13744995 0.55177325 -0.00013905 -0.00026476 0.00000840
0.32835481 0.26089320 0.53541553 -0.00017146 -0.00019653 0.00000122
0.65970939 0.76116949 0.38725340 0.00001431 0.00023294 -0.00011683
0.41176438 0.55004930 0.74926752 0.00004717 0.00005463 -0.00007041
0.69199002 0.27355283 0.27287403 0.00024376 -0.00020573 -0.00019294
0.51185298 0.55629021 0.80403000 -0.00005757 0.00009232 0.00023832
0.49217638 0.28927901 0.77654254 -0.00015117 -0.00014870 0.00022902
0.24828525 0.15787484 0.35025510 -0.00020731 0.00023547 -0.00006093
0.65265578 0.50034356 0.16160122 0.00007273 0.00005208 -0.00041775
0.42288411 0.13284904 0.46043718 -0.00011663 -0.00000639 0.00009326
0.79107016 0.40997264 0.57552147 0.00016795 -0.00007772 -0.00001189
0.70820320 0.24218613 0.49759114 0.00018288 -0.00011259 -0.00001763
0.67903578 0.18956286 0.48263770 0.00022367 -0.00014448 -0.00002298
0.37039205 0.49210134 0.71348226 -0.00015249 0.00003579 0.00008918
0.37100023 0.50504786 0.70145530 -0.00018833 0.00006915 0.00006230
0.38739571 0.23711494 0.63867295 -0.00020908 -0.00018749 0.00005988
0.50179178 0.61690664 0.23320283 -0.00009469 0.00012402 -0.00024376
0.40859783 0.17707555 0.51463372 -0.00012518 -0.00017124 -0.00005375
0.63090771 0.17655854 0.36797595 0.00011320 -0.00021378 -0.00009879
0.39091811 0.16934922 0.40326086 -0.00008648 -0.00000338 -0.00000600
0.51367646 0.77531236 0.44357359 -0.00002798 0.00025459 0.00000126
0.46526158 0.48787737 0.20111339 -0.00010749 -0.00001209 -0.00030014
0.64400882 0.36385041 0.83460283 0.00006903 -0.00009153 0.00034576
0.46063733 0.25197160 0.73262852 -0.00013447 -0.00016954 0.00020377
0.39884567 0.59694874 0.28072375 0.00000612 -0.00009749 0.00013419
0.51613367 0.66934311 0.26635298 -0.00008843 0.00018588 -0.00020821
0.38704774 0.50272185 0.75333250 0.00006502 0.00004880 -0.00023314
0.54904360 0.58838630 0.20273338 -0.00006513 0.00014013 -0.00027152
0.57931739 0.80128986 0.65452582 0.00016357 -0.00000563 0.00009119
0.74097085 0.68582082 0.28642315 0.00013193 0.00023712 -0.00025038
0.53201997 0.22921404 0.24290825 -0.00004858 -0.00025217 -0.00027954
0.40110165 0.53717399 0.77238870 -0.00001507 0.00005414 0.00019958
0.45231616 0.45658073 0.79879540 -0.00010823 -0.00002704 0.00025624
0.70647317 0.23413181 0.67734456 0.00031541 -0.00017087 0.00003473
0.69026774 0.74870551 0.63065529 0.00001545 0.00011540 0.00003410
0.39497530 0.58633381 0.28900823 0.00005897 0.00007570 -0.00001254
0.84190005 0.62101382 0.42351562 0.00017105 0.00011621 -0.00008163
0.37231889 0.57923794 0.37481499 -0.00018537 0.00007723 -0.00002193
0.66923469 0.25139013 0.28199571 0.00004303 -0.00015702 -0.00021690
0.40642524 0.62127292 0.62352383 -0.00015637 0.00008661 -0.00000343
0.48584658 0.64338446 0.25512761 -0.00006485 0.00014749 -0.00025218
0.31930867 0.36114639 0.64789915 0.00012487 0.00009630 -0.00011265
0.69978756 0.22813109 0.68461502 0.00021789 -0.00026413 0.00017606
0.74983126 0.37572399 0.29027244 0.00023483 -0.00011826 -0.00002524
0.77157044 0.62543344 0.74684703 0.00018915 0.00016038 0.00019122
0.40609503 0.64996117 0.50423115 -0.00015245 0.00005152 -0.00001067
0.47221071 0.48221913 0.80573785 -0.00012232 0.00000486 0.00023670
0.51279473 0.78064263 0.47887853 -0.00001903 0.00021103 -0.00002711
0.48514721 0.09550721 0.41131073 0.00015451 -0.00031506 0.00003112
0.85310090 0.62113279 0.46864718 0.00022873 0.00018780 -0.00001966
0.42416942 0.14982162 0.30279753 -0.00007501 -0.00000379 -0.00033981
0.73159009 0.61429816 0.22764686 0.00021210 0.00020516 -0.00025434
0.29928297 0.33938056 0.50607240 -0.00005067 -0.00007198 -0.00002732
0.69239479 0.40493923 0.19500704 0.00018863 -0.00010544 -0.00025420
0.67778492 0.24746414 0.72663116 0.00015959 -0.00019659 0.00013262
0.77376628 0.50634205 0.25527439 0.00018665 -0.00001676 -0.00019543
0.44186580 0.07604741 0.39551342 0.00003694 -0.00045588 -0.00000142
0.72789091 0.27936456 0.52001405 0.00016729 -0.00010611 -0.00001035
0.28608072 0.33501318 0.59178025 -0.00026047 0.00010420 -0.00000726
0.57230824 0.76762933 0.40448835 -0.00000268 0.00024517 -0.00005393
0.36059320 0.56134474 0.57634759 -0.00012127 0.00002760 -0.00002084
0.52364427 0.76734811 0.59878826 0.00000201 0.00003166 0.00001800
0.84191561 0.56595558 0.40954176 0.00025188 -0.00009120 -0.00005487
0.38710663 0.11716625 0.30676690 -0.00015059 -0.00016329 -0.00043059
0.33461794 0.60950387 0.54296172 -0.00000139 0.00004895 0.00001028
0.33991149 0.47340873 0.29295981 0.00017135 0.00011807 0.00020003
0.37868541 0.50427955 0.72323328 -0.00013494 0.00004797 0.00006512
0.68401796 0.53556401 0.17673808 0.00015786 0.00002639 -0.00038173
0.32636234 0.47056571 0.53468394 -0.00014290 0.00005749 -0.00000070
0.42020455 0.07484772 0.37093017 0.00002870 -0.00045085 -0.00010346
0.71798760 0.74874663 0.37656286 0.00006815 0.00025588 -0.00012001
0.36911005 0.45056888 0.25603268 -0.00019037 -0.00000573 -0.00023369
0.62374294 0.41047740 0.84382129 -0.00004433 -0.00009514 0.00031288
0.68610609 0.90160978 0.64940798 -0.00008304 -0.00003880 0.00001915
0.34726089 0.43774581 0.27360564 -0.00014077 -0.00002883 -0.00028004
0.53212225 0.40176487 0.17086187 -0.00010248 -0.00004940 -0.00032627
0.62739754 0.91905481 0.69334424 -0.00024119 0.00016833 0.00035461
0.72521138 0.71906334 0.67449486 0.00004033 0.00013816 0.00006814
0.42608625 0.12309137 0.46077740 -0.00010566 -0.00001254 0.00015955
0.42788193 0.56649375 0.77591664 -0.00013759 0.00011393 0.00016341
0.38654405 0.61018878 0.39002970 -0.00017706 0.00008210 -0.00002048
0.28510898 0.61312521 0.53144842 -0.00032808 0.00015734 0.00001019
0.47177264 0.74211556 0.46022147 -0.00006064 0.00012310 -0.00003474
0.28072602 0.55158478 0.48045623 0.00007643 -0.00018571 -0.00020494
0.69044346 0.73765147 0.34009492 0.00003408 0.00023132 -0.00017976
0.44501904 0.70304251 0.38117817 -0.00008111 0.00009986 -0.00003784
0.60708499 0.19064693 0.31309226 0.00011649 -0.00026687 -0.00010909
0.64780021 0.77718025 0.44927523 -0.00000694 0.00023100 -0.00003364
0.83481866 0.57381535 0.35463470 0.00036567 -0.00002308 -0.00009906
0.46767542 0.24456996 0.73224938 -0.00013103 -0.00018987 0.00020272
0.42652321 0.68249530 0.41745821 -0.00016954 0.00012414 -0.00002576
0.29908285 0.29356411 0.51158947 -0.00022703 -0.00011885 0.00000204
0.73754632 0.62321419 0.77111560 0.00013382 0.00014849 0.00021966
0.80590135 0.61739141 0.32218170 0.00024390 0.00007669 -0.00014581
0.40784732 0.63810092 0.28141868 -0.00015445 0.00016211 -0.00015302
0.34701294 0.52119428 0.57880372 -0.00012079 0.00004386 -0.00000412
0.68573469 0.20827104 0.44066718 0.00020618 -0.00013672 -0.00004634
0.80500513 0.75616056 0.63290906 0.00023407 0.00010238 0.00006402
0.61072302 0.78151095 0.47687492 -0.00003290 0.00020791 -0.00001853
0.46286327 0.13566762 0.47273993 -0.00005728 -0.00002657 0.00001813
0.66233891 0.16009857 0.52813953 0.00025605 -0.00022724 -0.00004728
0.66849977 0.35610518 0.19792014 0.00018706 -0.00014535 -0.00026111
0.54574031 0.30550215 0.19045956 -0.00010903 -0.00019151 -0.00034071
0.46709058 0.70208853 0.64980382 -0.00004913 0.00006657 0.00004223
0.47940335 0.35213250 0.20257327 -0.00013125 -0.00010296 -0.00027696
0.65047979 0.15448588 0.45648232 0.00015110 -0.00033641 -0.00003073
0.79952925 0.72220987 0.42558369 0.00026748 0.00019501 -0.00006757
0.77835053 0.59098583 0.75643677 0.00024611 0.00004638 0.00017432
0.48531067 0.74836975 0.53070235 -0.00000619 0.00009173 -0.00000059
0.48159039 0.12797466 0.46824247 -0.00008042 -0.00007843 -0.00005727
0.56020224 0.79370922 0.65475601 0.00000088 0.00001997 0.00022398
0.36626372 0.59699434 0.53649181 -0.00010597 0.00003885 -0.00001310
0.67383450 0.37308109 0.19383515 0.00020483 -0.00011270 -0.00025232
0.33516493 0.44261909 0.64567655 -0.00019619 0.00007160 0.00003661
0.32455000 0.08156559 0.37018409 -0.00012677 -0.00039916 -0.00009876
0.69521558 0.53974462 0.82442492 0.00009745 0.00009322 0.00028962
0.70887035 0.24732849 0.47226739 0.00018285 -0.00010656 -0.00002841
0.29894388 0.34652206 0.48080203 -0.00007211 -0.00013123 -0.00002548
0.78239101 0.57350510 0.75747526 0.00024107 0.00006009 0.00016704
0.84688556 0.63420826 0.52896005 0.00019917 0.00005158 -0.00002922
0.71849906 0.47081363 0.82425255 0.00016840 -0.00001717 0.00030639
0.73568726 0.75548899 0.58089173 0.00003583 0.00011106 0.00003353
0.33914432 0.07920067 0.37019631 -0.00008387 -0.00041441 -0.00006559
0.44323003 0.27822599 0.25992975 -0.00016898 -0.00014834 -0.00015748
0.40072361 0.18437935 0.52635497 -0.00013977 -0.00018812 -0.00001396
0.80046874 0.56188613 0.29634985 0.00020475 -0.00003396 -0.00015958
0.73406398 0.75043893 0.39189094 0.00007675 0.00027944 -0.00010001
0.46197715 0.27135581 0.24937373 -0.00016648 -0.00015086 -0.00019693
0.59858263 0.15776141 0.65704089 0.00012111 -0.00030605 0.00011713
0.69034338 0.20048134 0.57967871 0.00022852 -0.00015159 -0.00000021
0.36192966 0.48036790 0.74684143 -0.00020831 0.00005844 -0.00001133
0.37409011 0.38513032 0.74267751 -0.00014103 -0.00007074 0.00024146
0.74272865 0.42758116 0.79361743 0.00015293 -0.00010130 0.00024542
0.34404314 0.24166022 0.50316048 -0.00014645 -0.00016669 -0.00002707
0.78354627 0.74595481 0.57893825 -0.00012323 0.00005046 0.00007455
0.34411100 0.44785705 0.67677528 -0.00018865 0.00007003 0.00005383
0.62647700 0.93505901 0.66536981 -0.00023445 0.00037202 0.00002204
0.17758422 0.11198387 0.31931868 -0.00009336 0.00015666 -0.00031221
0.73654902 0.84205621 0.66260016 -0.00011079 0.00001137 -0.00000387
0.73624653 0.75040776 0.59775203 0.00007233 0.00008530 0.00005377
0.28404716 0.31360540 0.48366284 -0.00026515 -0.00009993 0.00000533
0.70816207 0.36281079 0.79831398 0.00021374 -0.00016020 0.00016203
0.56402934 0.35249943 0.82628834 -0.00006156 -0.00005249 0.00030596
0.30965108 0.36253285 0.60173804 -0.00011717 -0.00006475 0.00003471
0.83774054 0.66528815 0.53857434 0.00023286 0.00008667 -0.00000438
0.67785722 0.35247049 0.20751882 0.00020232 -0.00014710 -0.00022656
0.57267398 0.14596346 0.64827830 0.00010899 -0.00034074 0.00011552
0.49130693 0.30069003 0.78147930 -0.00007943 -0.00011081 0.00027486
0.53906918 0.18369335 0.71494329 -0.00013003 -0.00029000 0.00021075
0.53206331 0.71426785 0.31030151 -0.00005035 0.00020408 -0.00017659
0.76247871 0.38603535 0.75121218 0.00016094 -0.00005572 0.00019343
0.75211835 0.43341398 0.23684862 0.00017763 -0.00003429 -0.00031335
0.31120658 0.40211734 0.57054925 -0.00020797 0.00004730 0.00001071
0.59525698 0.72393548 0.31213605 0.00001234 0.00023717 -0.00013826
0.47873625 0.14649379 0.60887843 -0.00017889 -0.00028018 0.00008952
0.52596587 0.14587340 0.65210426 -0.00011191 -0.00034585 0.00016120
0.75294226 0.33565581 0.50120580 0.00015612 -0.00009764 -0.00000368
0.45929533 0.24321349 0.72510010 -0.00015197 -0.00018057 0.00020116
0.83736700 0.60197765 0.37929025 0.00021952 0.00008188 -0.00019911
0.34195620 0.15021190 0.38184974 -0.00007628 0.00005512 0.00000434
0.70344669 0.47714236 0.83221453 0.00014325 0.00002247 0.00032357
0.74308336 0.55872965 0.22042866 0.00019016 0.00000556 -0.00030622
0.44541931 0.61430043 0.76368833 -0.00011888 0.00008386 0.00020432
0.45928752 0.68102431 0.72143209 -0.00004045 0.00012492 0.00006329
0.50134480 0.43709981 0.18162248 -0.00010974 0.00001482 -0.00029552
0.61475462 0.37296987 0.83863670 0.00003376 -0.00011376 0.00032864
0.36684409 0.22441636 0.44444641 -0.00008110 -0.00013532 -0.00006543
0.32904416 0.41591328 0.65227324 -0.00018663 0.00003562 0.00009535
0.69779509 0.69950902 0.71256059 0.00006980 0.00017578 0.00008380
0.43022349 0.66494906 0.31006020 -0.00004500 -0.00008154 0.00013833
0.64828497 0.16252461 0.58661669 -0.00008703 -0.00027068 -0.00002940
0.50599462 0.76522553 0.60396063 -0.00005347 0.00011587 0.00002464
0.84607953 0.63573372 0.48498708 0.00020136 0.00007106 -0.00002157
0.44070724 0.16226777 0.58107078 -0.00015697 -0.00023239 0.00007233
0.29331562 0.54181266 0.54655308 0.00001333 -0.00010944 0.00005743
0.39997977 0.51302880 0.23850307 -0.00010090 0.00002998 -0.00028574
0.45733291 0.35384253 0.21475370 -0.00016578 -0.00009841 -0.00024524
0.81258023 0.71885872 0.52553445 0.00021143 0.00016700 0.00003292
0.30780762 0.41552860 0.45592749 -0.00020449 0.00003388 -0.00000477
0.58782643 0.14092228 0.41143411 0.00008008 -0.00027996 -0.00005765
0.52888674 0.13178501 0.61701834 -0.00006025 -0.00034615 0.00017682
0.45527151 0.69574094 0.63575876 -0.00012293 0.00012427 0.00004943
0.33549294 0.52181470 0.48800021 -0.00010381 0.00005090 0.00002556
0.41461074 0.51374036 0.78105229 -0.00019590 0.00010156 0.00021037
0.45856041 0.45010969 0.20163263 -0.00015644 0.00000892 -0.00026647
0.59797442 0.39045501 0.15940082 0.00006760 -0.00004807 -0.00040299
0.53403020 0.45943600 0.17023034 -0.00006400 -0.00000993 -0.00033273
0.63455576 0.76660985 0.59653008 -0.00001042 0.00010417 0.00002378
0.43955201 0.13297470 0.30472326 -0.00003373 -0.00004382 -0.00043455
0.72151107 0.25783670 0.67153287 0.00023435 -0.00017456 0.00002309
0.84285849 0.63786519 0.45861149 0.00021178 0.00004925 -0.00009902
0.76845044 0.46952280 0.77505493 0.00022731 -0.00009911 0.00013960
0.42489991 0.60382670 0.72095740 -0.00009574 0.00004550 0.00009340
0.29074055 0.32166642 0.42794973 -0.00019823 -0.00010038 -0.00006475
0.50421900 0.28165832 0.77857733 -0.00010297 -0.00015648 0.00025633
0.37366202 0.25781000 0.64721096 -0.00017978 -0.00018683 0.00011447
0.74398625 0.50156552 0.22048536 0.00022196 -0.00003510 -0.00022600
0.81571013 0.67995358 0.62532288 0.00014967 0.00013915 0.00010772
0.38190648 0.58999068 0.33602437 -0.00019660 0.00011220 -0.00004116
0.35762233 0.15238111 0.38677642 -0.00006785 0.00005147 -0.00000826
0.57655555 0.52256519 0.17088079 -0.00004619 0.00004543 -0.00032968
0.35238436 0.57349849 0.47940886 -0.00010887 0.00003069 0.00004037
0.67937934 0.76882690 0.42096168 0.00002802 0.00023526 -0.00008639
0.83548349 0.56196404 0.37190524 0.00027025 -0.00012910 -0.00004313
0.79411340 0.42249328 0.53310287 0.00016860 -0.00006415 -0.00001180
0.55940950 0.65161783 0.76337928 -0.00001185 0.00014894 0.00018527
0.58725053 0.63976204 0.22643603 -0.00002168 0.00015970 -0.00025181
0.79289478 0.45535988 0.35096002 0.00020108 -0.00007666 -0.00005128
0.76621675 0.76853442 0.62764889 -0.00008128 0.00009923 0.00002522
0.56505889 0.12555858 0.44461429 0.00004995 -0.00029843 -0.00005185
0.48208737 0.74865991 0.48254654 0.00001898 0.00007131 -0.00001191
0.40478304 0.11858723 0.30546156 -0.00005904 -0.00019368 -0.00043506
0.74783772 0.70165604 0.30889052 0.00016376 0.00026230 -0.00021300
0.82785720 0.49615854 0.58135986 0.00019259 -0.00007043 -0.00000652
0.33082092 0.49349117 0.45765311 -0.00014393 0.00005310 0.00001355
0.69546461 0.32382783 0.24135388 0.00011775 -0.00013660 -0.00023682
0.35451579 0.59324956 0.50607800 -0.00007975 0.00003108 -0.00000498
0.72784758 0.70695513 0.69271380 0.00002747 0.00016419 0.00010042
0.74454325 0.71211970 0.67518646 0.00004470 0.00014163 0.00007343
0.66065222 0.63801199 0.21975708 0.00006423 0.00020887 -0.00027348
0.32967904 0.54138684 0.52393335 -0.00006635 0.00001727 -0.00000394
0.78833282 0.44697869 0.34229529 0.00020433 -0.00007622 -0.00005738
0.72362137 0.59131050 0.79539973 0.00007338 0.00012835 0.00027010
0.27102727 0.53995138 0.49566427 -0.00005922 -0.00027550 -0.00019898
0.70927393 0.89869446 0.63273782 -0.00015119 -0.00007335 -0.00005850
0.59330904 0.21347786 0.26921934 0.00011803 -0.00027518 -0.00017461
0.30078065 0.33183551 0.57409495 0.00012397 0.00009198 -0.00004166
0.82842761 0.67852151 0.44435078 0.00026825 0.00009205 -0.00003346
0.33027831 0.38070288 0.67781162 0.00016540 0.00006627 -0.00012887
0.63964474 0.61641186 0.79330498 -0.00000924 0.00011935 0.00021585
0.40370673 0.18774053 0.44125646 -0.00003891 -0.00011236 -0.00006973
0.45712277 0.64049923 0.26351327 -0.00011637 0.00015582 -0.00021935
0.38060114 0.43550873 0.76068854 -0.00013688 0.00000796 0.00023413
0.62048405 0.90852666 0.61752981 0.00009306 0.00015458 -0.00027086
0.41436061 0.63701135 0.61846930 -0.00017283 0.00005524 0.00002578
0.66558778 0.44020522 0.16709156 0.00019188 -0.00008611 -0.00034205
0.33749875 0.11867172 0.31309226 -0.00018338 -0.00018336 -0.00039276
0.76813143 0.77784848 0.65999848 -0.00020208 0.00000520 -0.00000929
0.78674620 0.41358063 0.48269996 0.00015296 -0.00009196 -0.00003952
0.42777520 0.37442309 0.77331263 -0.00017360 -0.00004828 0.00021627
0.50159389 0.50017571 0.81362319 -0.00009496 0.00001900 0.00023770
0.78380644 0.41372073 0.44320777 0.00016579 -0.00007462 -0.00003397
0.68715900 0.25033051 0.71890146 0.00018706 -0.00015873 0.00009516
0.27732927 0.53656685 0.50653827 0.00013324 -0.00025774 -0.00004186
0.31483346 0.38760531 0.61614442 -0.00021336 0.00004809 0.00001213
0.38620046 0.61150742 0.56088048 -0.00014732 0.00001173 -0.00000547
0.40379122 0.33279502 0.26275387 -0.00015165 -0.00011364 -0.00019330
0.79093236 0.62473857 0.29781863 0.00027419 0.00007794 -0.00015467
0.81815290 0.60009307 0.68793172 0.00023548 0.00005039 0.00010027
0.61843711 0.17256474 0.36153379 0.00010667 -0.00025495 -0.00007607
0.43543148 0.21529800 0.67363542 -0.00015144 -0.00023762 0.00010638
0.81114376 0.48150420 0.72336560 0.00019536 -0.00000704 0.00025157
0.53500640 0.17093362 0.31111091 -0.00000934 -0.00025672 -0.00014455
0.70442516 0.25191045 0.39921477 0.00018712 -0.00012573 -0.00004453
0.79601353 0.42858517 0.52100807 0.00015728 -0.00008849 -0.00002188
0.78749335 0.74272150 0.53015310 0.00012515 0.00019158 0.00007610
0.64951146 0.15699090 0.43831116 0.00012644 -0.00036053 -0.00011254
0.77984923 0.70903099 0.65059209 0.00000163 0.00011572 -0.00002238
0.61513042 0.70592886 0.28590390 -0.00001727 0.00020640 -0.00019770
0.84292632 0.57155490 0.64378637 0.00026054 0.00007314 0.00012269
0.26444060 0.56531185 0.52592689 -0.00036334 0.00020335 0.00000097
0.58109748 0.55348605 0.81889123 -0.00005315 0.00008104 0.00023275
0.48757663 0.74183863 0.36180177 -0.00002443 0.00023949 -0.00009005
0.37312278 0.57671291 0.58950645 -0.00012318 0.00004032 0.00000485
0.52986735 0.22148995 0.25079691 -0.00006566 -0.00025669 -0.00024746
0.46308121 0.73281705 0.43799093 -0.00007005 0.00011979 -0.00007126
0.42983434 0.15952259 0.52235675 -0.00015593 -0.00017433 -0.00000316
0.50018066 0.56180722 0.79918009 -0.00005122 0.00013891 0.00022423
0.16759638 0.08005346 0.35999057 -0.00014557 0.00014375 -0.00028587
0.85637760 0.58348852 0.58973217 0.00030440 -0.00004362 0.00008949
0.32229847 0.45552558 0.38297716 -0.00020898 0.00005517 -0.00002130
0.52188313 0.11635571 0.47212064 -0.00006618 -0.00028386 -0.00006976
0.36165950 0.44085568 0.75101203 -0.00021244 0.00001790 0.00013140
0.43435070 0.31627944 0.24562232 -0.00016879 -0.00010097 -0.00019918
0.36523855 0.53397292 0.26069915 -0.00024532 0.00009627 -0.00008495
0.76272327 0.36431628 0.45696706 0.00015524 -0.00009671 -0.00000855
0.57136983 0.12184831 0.49094665 0.00008442 -0.00031273 -0.00000934
0.48332265 0.77142417 0.43358016 -0.00008752 0.00033840 0.00003671
0.32611552 0.26237530 0.51612586 -0.00017061 -0.00016649 -0.00001450
0.55729592 0.16026534 0.33464789 0.00000396 -0.00027141 -0.00013450
0.55775726 0.17739354 0.30402282 0.00006446 -0.00028469 -0.00016094
0.44089180 0.50886935 0.21672282 -0.00010733 0.00002864 -0.00027943
0.39107379 0.52301997 0.73238951 -0.00012650 0.00003938 0.00005001
0.76342934 0.60921031 0.25384343 0.00026507 0.00008751 -0.00022847
0.60411859 0.37898615 0.16177909 0.00004972 -0.00006604 -0.00041466
0.68050450 0.51179242 0.17243074 0.00008594 0.00004605 -0.00038231
0.68103486 0.38086632 0.19571312 0.00022299 -0.00012553 -0.00022532
0.67606705 0.17772932 0.57939631 0.00031127 -0.00014495 0.00005948
0.65609580 0.69604886 0.72476429 0.00001222 0.00016391 0.00012819
0.79140711 0.59679079 0.73847806 0.00021457 0.00006006 0.00020401
0.77381742 0.40204728 0.38816512 0.00017894 -0.00007464 -0.00003732
0.28205356 0.33309188 0.56506890 -0.00022016 0.00007911 -0.00009412
0.57837677 0.61502534 0.21118911 -0.00004463 0.00011035 -0.00028790
0.62112337 0.73336518 0.67402124 0.00001214 0.00014625 0.00003340
0.29894161 0.60902792 0.58212590 -0.00015893 0.00014279 0.00039990
0.85734600 0.59280705 0.58303875 0.00030709 0.00010543 0.00004099
0.66005516 0.90196669 0.69131845 0.00010975 -0.00015491 -0.00002660
0.53451163 0.55902982 0.19416761 -0.00007098 0.00009319 -0.00028078
0.64711869 0.17144732 0.38778597 0.00008367 -0.00034301 -0.00011932
0.53705001 0.74142170 0.65791816 -0.00000677 0.00013660 0.00001623
0.50871533 0.11471239 0.38877329 0.00014160 -0.00021978 -0.00005075
0.29897946 0.34390029 0.51883990 -0.00008950 -0.00010328 -0.00001080
0.85436845 0.61214340 0.55392241 0.00018083 0.00017823 0.00002392
0.51217878 0.68907535 0.28651765 -0.00005708 0.00018978 -0.00019804
0.27288851 0.58825511 0.48592773 -0.00039943 0.00013721 -0.00010865
0.79151940 0.43101349 0.44512352 0.00016090 -0.00008734 -0.00003357
0.40926269 0.07843459 0.35662720 0.00001675 -0.00040744 -0.00019895
0.81772709 0.61817187 0.67970288 0.00022584 0.00006839 0.00011175
0.57053149 0.75915140 0.62230301 -0.00001677 0.00005404 0.00000751
0.51391441 0.40432772 0.81938702 -0.00006899 -0.00004799 0.00026143
0.53584254 0.58389437 0.20456240 -0.00008176 0.00009034 -0.00027773
0.52299166 0.77300417 0.57803202 -0.00002105 0.00008604 -0.00002445
0.50589120 0.39395848 0.18209502 -0.00011602 -0.00003242 -0.00029755
0.54970187 0.29107022 0.19735086 -0.00011022 -0.00021110 -0.00030868
0.44945648 0.70434779 0.32044497 -0.00004746 0.00021547 -0.00017809
0.64013284 0.59542769 0.80596131 0.00000716 0.00012404 0.00023119
0.78534633 0.46642625 0.75023484 0.00018888 -0.00008488 0.00013742
0.83704007 0.63695902 0.60237402 0.00022872 0.00004941 0.00002610
0.73348582 0.47950619 0.81356651 0.00019256 -0.00001407 0.00025384
0.36949810 0.51064497 0.25551119 -0.00015501 -0.00002549 -0.00022409
0.28840008 0.08917292 0.36125141 -0.00013147 -0.00036998 -0.00006751
0.18831258 0.08921295 0.32288107 0.00006264 -0.00012279 -0.00025131
0.59069729 0.40126008 0.15821113 -0.00005332 -0.00000641 -0.00038756
0.65723324 0.19282617 0.34772784 0.00005221 -0.00034828 -0.00020093
0.33454344 0.29266351 0.63214409 -0.00019830 -0.00017776 0.00010463
0.45915747 0.10536163 0.33027053 0.00022462 -0.00028372 -0.00025092
0.40569252 0.17954500 0.48273221 -0.00009303 -0.00012767 -0.00009180
0.80022973 0.42609683 0.62492925 0.00017963 -0.00009067 -0.00003091
0.72389269 0.28843841 0.41456845 0.00017292 -0.00010909 -0.00001356
0.47675934 0.74016309 0.56146419 -0.00007346 0.00007727 0.00002417
0.59119427 0.70365953 0.28586501 -0.00002673 0.00020880 -0.00018317
0.34462687 0.51484114 0.27552915 -0.00027631 0.00031676 0.00004859
0.62070864 0.14801149 0.44910952 0.00010234 -0.00023636 -0.00003096
0.84947848 0.57748222 0.44651335 0.00025990 -0.00008109 -0.00000683
0.58229274 0.83286333 0.58937633 0.00011944 0.00012946 -0.00013217
0.49965367 0.10742190 0.38650844 0.00010830 -0.00030255 -0.00002225
0.77079988 0.51980668 0.77885860 0.00024016 -0.00003123 0.00018653
0.55815423 0.83014816 0.61510485 -0.00021639 0.00015559 0.00000822
0.76026058 0.80550605 0.62078863 -0.00014007 0.00009274 0.00004358
0.43361470 0.19697230 0.32809126 -0.00013364 0.00001595 0.00002859
0.31190148 0.40928328 0.56012887 -0.00019746 0.00005988 0.00002225
0.74169242 0.66573513 0.73515916 0.00010608 0.00019221 0.00015792
0.80652398 0.60014313 0.71160102 0.00023334 0.00002904 0.00013384
0.36103353 0.51859480 0.63977700 -0.00016016 0.00007290 0.00002937
0.33286005 0.34700462 0.68659306 -0.00019086 -0.00011649 0.00015095
0.42679453 0.19854003 0.63795584 -0.00014445 -0.00025944 0.00005999
0.77441227 0.40109888 0.39954945 0.00017714 -0.00007083 -0.00002394
0.35125694 0.31183645 0.67705548 -0.00020304 -0.00011647 0.00016494
0.80451590 0.46397573 0.43000442 0.00017453 -0.00007922 -0.00002772
0.51177514 0.27418661 0.21860854 -0.00013443 -0.00018069 -0.00026830
0.34946683 0.23547493 0.49199292 -0.00014306 -0.00016345 -0.00003795
0.66365314 0.61029667 0.79621142 0.00000314 0.00011994 0.00022713
0.58208370 0.71952921 0.30670014 -0.00002626 0.00021045 -0.00019574
0.33091432 0.46006083 0.30078617 -0.00005871 -0.00004615 0.00019367
0.36210757 0.48560029 0.25892460 -0.00019987 0.00004554 -0.00021564
0.50370526 0.70648265 0.30739507 -0.00004824 0.00019501 -0.00020307
0.80828518 0.59356308 0.31823573 0.00025152 0.00001774 -0.00010183
0.31726620 0.34288961 0.66530418 -0.00019855 -0.00009621 0.00011134
0.41733369 0.65240055 0.58497560 -0.00015665 0.00007149 0.00001332
0.43620530 0.15462041 0.46836698 -0.00004608 -0.00005984 -0.00002269
0.45195594 0.32746810 0.77111560 -0.00013746 -0.00010161 0.00023236
0.41590941 0.64288634 0.60900068 -0.00016307 0.00008096 -0.00001253
0.34500825 0.38559285 0.72083390 -0.00016931 -0.00005118 0.00018888
0.51238668 0.12183164 0.44398165 -0.00001884 -0.00011029 -0.00000326
0.76765996 0.35378918 0.61507922 0.00016715 -0.00010529 -0.00003192
0.56914163 0.34018111 0.82429147 -0.00006192 -0.00010364 0.00030315
0.67498189 0.77376801 0.54897243 0.00002978 0.00014566 0.00002328
0.62049514 0.64361465 0.22482273 -0.00000175 0.00017794 -0.00025676
0.62159592 0.26248315 0.23308608 0.00017933 -0.00017917 -0.00024504
0.46914309 0.10324908 0.44863147 0.00004972 -0.00021458 0.00017412
0.64527076 0.62313753 0.20974590 0.00000458 0.00017019 -0.00028239
0.78045857 0.38380161 0.59513021 0.00016414 -0.00009624 -0.00002544
0.36858416 0.21554928 0.51270133 -0.00013873 -0.00016701 -0.00004693
0.38908687 0.55830491 0.68526322 -0.00018475 0.00007400 0.00005395
0.41277060 0.19592048 0.35148701 -0.00004536 0.00000745 0.00003634
0.52267027 0.68683600 0.28149429 -0.00007439 0.00017291 -0.00020854
0.58975774 0.77875131 0.54979968 -0.00000297 0.00011445 0.00003398
0.37923467 0.24056169 0.37477610 -0.00004718 -0.00016109 -0.00005060
0.33238864 0.61658639 0.50691408 0.00001625 0.00005641 0.00000673
0.83638746 0.51953429 0.56357896 0.00021005 -0.00004714 -0.00001605
0.79427123 0.50079280 0.27336213 0.00027887 0.00003849 -0.00023894
0.69988650 0.93647772 0.69139403 0.00022115 0.00037628 0.00022159
0.80742121 0.44374651 0.61292559 0.00019172 -0.00006348 0.00002573
0.31861827 0.44604471 0.39334860 -0.00020612 0.00005203 -0.00003433
0.49342614 0.12232752 0.45721725 -0.00009049 -0.00010196 0.00005397
0.40815863 0.59927917 0.68123722 -0.00019178 0.00006917 0.00003110
0.69268608 0.92277730 0.63119239 -0.00008084 -0.00008096 -0.00021373
0.44394609 0.68620110 0.61581087 -0.00015345 0.00011584 0.00004156
0.38094252 0.33413368 0.72318214 -0.00016479 -0.00011667 0.00020270
0.56045800 0.80043709 0.57606739 0.00000704 0.00006999 -0.00011180
0.70085597 0.22536923 0.51627821 0.00019065 -0.00011934 -0.00003171
0.60072076 0.14703976 0.40974742 0.00011017 -0.00026022 -0.00006698
0.48772562 0.12340935 0.49721530 -0.00010801 -0.00023694 -0.00000210
0.75084639 0.56406873 0.22880986 0.00027245 0.00002019 -0.00021816
0.83523554 0.53389066 0.45675695 0.00019320 -0.00010231 -0.00003994
0.38682312 0.49561372 0.74368268 0.00007923 0.00003445 -0.00009777
0.54442388 0.77888370 0.54968292 -0.00000123 0.00011808 0.00006046
0.78757006 0.74026096 0.45586634 0.00017365 0.00025588 -0.00002474
0.39054784 0.24063842 0.64917225 -0.00017259 -0.00018836 0.00013407
0.54802740 0.59713775 0.20794690 -0.00006879 0.00012782 -0.00026348
0.29558602 0.32590815 0.54846764 0.00001970 0.00007936 0.00004490
0.16927420 0.07579723 0.35069206 -0.00013801 0.00013566 -0.00010629
0.67099369 0.50712818 0.83624953 0.00005426 0.00007135 0.00029591
0.66697317 0.72506958 0.31313008 0.00003357 0.00026546 -0.00012708
0.48492151 0.77858347 0.47803348 -0.00013185 0.00018041 0.00001105
0.78535527 0.39446995 0.59888273 0.00017600 -0.00007274 -0.00000046
0.80120039 0.44231778 0.50938690 0.00017056 -0.00006145 -0.00001345
0.80259907 0.51942867 0.28370133 0.00033492 0.00003467 -0.00015721
0.82929039 0.49966756 0.67199874 0.00026005 -0.00008020 0.00004623
0.32903862 0.31666970 0.65343958 -0.00018042 -0.00018663 0.00011040
0.45616767 0.71043748 0.59148890 -0.00014408 0.00013679 -0.00003132
0.43681684 0.26390967 0.27596053 -0.00012788 -0.00015283 -0.00015350
0.65567219 0.76582152 0.39903021 0.00001925 0.00025111 -0.00008829
0.47971132 0.22190244 0.27616960 -0.00015949 -0.00017363 -0.00012930
0.54603052 0.19547352 0.73069727 -0.00001367 -0.00026147 0.00027748
0.83877683 0.52912074 0.53669530 0.00020874 -0.00005006 -0.00003312
0.55747157 0.41848835 0.83397245 -0.00004786 -0.00003812 0.00027866
0.49934679 0.77977091 0.47365385 -0.00006243 0.00015617 -0.00002253
0.67860210 0.45940483 0.84039229 0.00011325 0.00003340 0.00032486
0.36554101 0.45436478 0.73784983 0.00016282 -0.00000066 -0.00016263
0.82686543 0.68697494 0.56454623 0.00021636 0.00011221 0.00001256
0.48303467 0.39246857 0.19246535 -0.00012955 -0.00004953 -0.00028921
0.37639275 0.58195198 0.34828153 -0.00020987 0.00006821 -0.00003437
0.55917829 0.16742013 0.32167804 0.00001675 -0.00027329 -0.00016193
0.42950749 0.54623675 0.23044430 -0.00010217 0.00007495 -0.00028798
0.54124951 0.50051481 0.17385389 -0.00011586 0.00001660 -0.00031359
0.28227150 0.57897550 0.46335250 -0.00008141 -0.00004093 -0.00036462
0.72791088 0.27068648 0.60262865 0.00016614 -0.00015469 0.00001799
0.78914559 0.84148145 0.62978697 0.00029562 0.00018754 -0.00007474
0.84993213 0.55864841 0.61919427 0.00028498 -0.00007520 0.00003884
0.29742059 0.29795930 0.54149187 -0.00029532 -0.00005937 -0.00000144
0.30351251 0.28932014 0.53418362 -0.00018767 -0.00020418 -0.00003273
0.79459590 0.73804724 0.48922884 0.00017051 0.00023105 0.00000190
0.52926475 0.62680888 0.77547741 -0.00006164 0.00013599 0.00020064
0.82031101 0.69116008 0.42865354 0.00027395 0.00011519 -0.00008634
0.33872515 0.49331662 0.57849902 -0.00013871 0.00005185 0.00000574
0.42697576 0.66903955 0.58094621 -0.00017171 0.00007280 -0.00001075
0.49907330 0.38040155 0.81060666 -0.00008147 -0.00008725 0.00026555
0.77010381 0.35793754 0.62931776 0.00017681 -0.00010185 0.00000973
0.78989053 0.74253029 0.51857972 0.00012950 0.00023585 0.00001338
0.46954557 0.14625698 0.30948094 0.00008879 -0.00008132 -0.00031728
0.83458734 0.53909862 0.42799643 0.00021606 -0.00007772 -0.00000336
0.31638005 0.60216558 0.57377809 0.00016779 0.00000862 0.00005010
0.75022042 0.55269110 0.79508960 0.00018092 0.00004103 0.00027336
0.35112128 0.55546856 0.45738849 -0.00010995 0.00005556 0.00001395
0.78535187 0.72833294 0.65169173 -0.00008653 -0.00001004 0.00007730
0.37041315 0.25375172 0.36948809 -0.00009920 -0.00012416 -0.00007123
0.64272124 0.50406832 0.16114311 0.00003159 0.00005813 -0.00040022
0.74392951 0.33846104 0.37802604 0.00017305 -0.00009933 -0.00005052
0.65634382 0.15382542 0.54179317 0.00009669 -0.00038732 -0.00001505
0.44712156 0.71359181 0.42630637 -0.00017541 0.00011347 -0.00003244
0.76609892 0.34884584 0.63455129 0.00018276 -0.00009666 -0.00000872
0.45551056 0.32130507 0.22761795 -0.00019229 -0.00009804 -0.00021629
0.69827759 0.36063159 0.80593687 0.00016802 -0.00010454 0.00025547
0.18101877 0.09960885 0.36473045 -0.00006565 -0.00001706 -0.00030058
0.76576090 0.38854262 0.36856189 0.00017800 -0.00009329 -0.00002605
0.75318354 0.33812749 0.48883191 0.00015363 -0.00010103 -0.00001186
0.40082812 0.64264619 0.46112877 -0.00015457 0.00006240 0.00000013
0.75481129 0.69268334 0.30428633 0.00017586 0.00022331 -0.00024327
0.56173337 0.65971106 0.75687933 0.00000979 0.00015959 0.00016305
0.49814710 0.77921385 0.54260814 -0.00003254 0.00018433 -0.00001124
0.64807039 0.64040136 0.22107242 -0.00001470 0.00019629 -0.00027516
0.85073602 0.56322044 0.53264588 0.00024419 -0.00004227 0.00001602
0.64119697 0.16701545 0.40094706 0.00006396 -0.00030601 0.00000309
0.76983702 0.38565955 0.42562929 0.00016280 -0.00008565 -0.00003638
0.73556161 0.30741012 0.44510463 0.00015400 -0.00011883 -0.00003217
0.37077007 0.56698966 0.26762271 -0.00022069 0.00018811 -0.00001583
0.31351590 0.42137587 0.30776978 -0.00033969 -0.00008425 -0.00015291
0.32181153 0.42454022 0.60231513 -0.00020385 0.00004691 0.00001421
0.50410223 0.72686744 0.33340037 -0.00005503 0.00024295 -0.00014272
0.21961702 0.15316832 0.34901315 -0.00020819 0.00030792 -0.00005008
0.76439220 0.34425050 0.65735334 0.00018926 -0.00011483 0.00000860
0.49442124 0.71047860 0.69846433 -0.00000572 0.00014268 0.00015410
0.21273015 0.15149608 0.36211309 -0.00016585 0.00032571 0.00002375
0.60281318 0.47209007 0.84125179 0.00000070 0.00004935 0.00028847
0.24972288 0.09206600 0.38075235 -0.00017450 -0.00035233 0.00016569
0.76040286 0.47983417 0.24222113 0.00017449 -0.00002194 -0.00019918
0.53033882 0.14224873 0.36907333 -0.00000574 -0.00010170 -0.00008969
0.83534789 0.63107061 0.61719739 0.00024116 0.00000895 0.00005328
0.62119335 0.70457798 0.71591949 -0.00000685 0.00015605 0.00011347
0.76898086 0.37320784 0.48602888 0.00015190 -0.00010023 -0.00000447
0.55042237 0.78165770 0.53141952 0.00001866 0.00017078 0.00003746
0.63075876 0.74699992 0.35014501 0.00002031 0.00021180 -0.00016948
0.50000054 0.59702319 0.22255453 -0.00014704 0.00009557 -0.00024859
0.47174260 0.24990912 0.25844541 -0.00013148 -0.00014494 -0.00019965
0.40534896 0.19023332 0.36101791 -0.00006703 0.00000146 0.00003419
0.39146182 0.13955912 0.43916062 -0.00013843 0.00004238 0.00002272
0.72417510 0.85886872 0.67118269 -0.00010749 -0.00000859 0.00000775
0.77272671 0.71993279 0.36400437 0.00017402 0.00025617 -0.00015502
0.81484956 0.47141296 0.52730006 0.00017612 -0.00006644 -0.00000632
0.38738573 0.59707212 0.32568631 -0.00018549 0.00011391 -0.00006087
0.85806876 0.59813064 0.49028733 0.00030088 -0.00012752 -0.00004670
0.69814420 0.22103965 0.67191869 0.00021744 -0.00030076 0.00006159
0.70569706 0.27122462 0.33106881 0.00021435 -0.00014718 -0.00004661
0.40006760 0.63093722 0.28176558 -0.00020284 0.00022515 0.00000996
0.64870417 0.94311333 0.63457578 -0.00000593 0.00030698 -0.00041401
0.66499519 0.72277910 0.68737465 -0.00000483 0.00015110 0.00007530
0.55668217 0.57684183 0.19558856 -0.00006661 0.00008758 -0.00028999
0.55692780 0.74806732 0.35866633 -0.00004705 0.00020445 -0.00017766
0.73822230 0.69442558 0.70444840 0.00006251 0.00017724 0.00011403
0.65972716 0.50874925 0.83707452 -0.00001054 0.00005652 0.00030040
0.32627898 0.43749896 0.33535060 -0.00008410 -0.00001210 -0.00003016
0.32194269 0.44463378 0.56015337 -0.00016975 0.00006187 0.00002256
0.60965455 0.66184807 0.24080129 0.00003264 0.00020142 -0.00022520
0.56093389 0.67086416 0.74714613 -0.00003857 0.00014150 0.00016183
0.72373259 0.76545012 0.54683214 0.00005230 0.00015290 -0.00000519
0.59841472 0.67407292 0.25337309 -0.00003701 0.00018715 -0.00021812
0.40645859 0.64766848 0.29153994 -0.00034107 0.00018997 0.00000562
0.70782185 0.41661376 0.82154632 0.00013917 -0.00010223 0.00028704
0.45212272 0.14325720 0.52388000 -0.00015574 -0.00020741 0.00001186
0.61282551 0.23643114 0.76796567 0.00014057 -0.00023669 0.00027185
0.57707143 0.48122624 0.83599931 -0.00006486 0.00001561 0.00027281
0.72649777 0.85915107 0.65164614 -0.00008142 0.00001341 -0.00002113
0.57025242 0.75284725 0.36659724 0.00001832 0.00023639 -0.00011348
0.66717333 0.18287390 0.63325483 0.00002661 -0.00027976 0.00019336
0.72601300 0.31830636 0.31022254 0.00022834 -0.00009584 -0.00006079
0.41521671 0.66395730 0.41434610 -0.00019266 0.00007882 0.00002754
0.78772461 0.40987700 0.51996285 0.00015365 -0.00009316 -0.00002461
0.84984761 0.56834280 0.48795131 0.00023752 -0.00007251 0.00001225
0.58456761 0.69091761 0.27151978 -0.00005293 0.00019859 -0.00021198
0.81204104 0.50400382 0.34687841 0.00022384 -0.00008888 -0.00005372
0.33358720 0.27296022 0.59522480 -0.00017505 -0.00020625 0.00005171
0.42031571 0.64516348 0.28003553 -0.00005550 0.00019133 -0.00023741
0.47900417 0.71389538 0.69237697 -0.00006833 0.00021103 0.00011219
0.41012329 0.31072015 0.73351353 -0.00016617 -0.00012961 0.00019525
0.35266897 0.55128908 0.56777292 -0.00010868 0.00004235 -0.00002208
0.55397248 0.61500424 0.21684290 -0.00007641 0.00015652 -0.00023860
0.41204011 0.66058719 0.46619773 -0.00015758 0.00008177 -0.00001440
0.64403325 0.18130173 0.65372533 0.00016109 -0.00022046 0.00009338
0.33958015 0.12209958 0.42164323 -0.00011539 0.00012396 0.00011684
0.39666641 0.27803251 0.30569506 -0.00013064 -0.00014488 -0.00011519
0.74354368 0.32543117 0.43993112 0.00016420 -0.00008546 -0.00005685
0.71866250 0.42654157 0.81684870 0.00026069 -0.00009072 0.00020314
0.56418276 0.60341197 0.79433131 -0.00003681 0.00010068 0.00021570
0.84044576 0.57433128 0.38153508 0.00032295 -0.00000794 -0.00006581
0.46537608 0.59686422 0.77615565 -0.00005367 0.00008569 0.00023022
0.43417841 0.68021822 0.58156550 -0.00014654 0.00011187 0.00003562
0.57615638 0.51600856 0.82920033 -0.00001361 0.00009418 0.00024985
0.68010420 0.71588671 0.30190027 0.00002876 0.00022489 -0.00020060
0.40672544 0.63430727 0.33370727 -0.00017772 0.00009894 -0.00006037
0.33982697 0.48826766 0.59180242 -0.00014991 0.00004621 0.00002141
0.29622313 0.15666066 0.35253665 -0.00005846 0.00014132 0.00005958
0.39351764 0.48380798 0.77291352 -0.00019673 0.00005322 0.00021556
0.40511769 0.62695670 0.32319018 -0.00011507 0.00011875 -0.00012846
0.49779907 0.28448132 0.21962477 -0.00015102 -0.00017713 -0.00024489
0.61624897 0.91523337 0.68212116 -0.00028249 0.00025600 0.00014007
0.40223798 0.57836396 0.69833982 -0.00018692 0.00008547 0.00004300
0.81939930 0.65364695 0.37672964 0.00024827 0.00012110 -0.00009651
0.75418305 0.56356955 0.78873974 0.00020351 0.00008972 0.00022705
0.83522552 0.51944315 0.54130059 0.00018528 -0.00009594 -0.00000608
0.53463727 0.77850008 0.45441756 -0.00003764 0.00024240 -0.00004002
0.33508933 0.25173035 0.50634259 -0.00013395 -0.00019513 -0.00001881
0.40222573 0.34835550 0.25678983 -0.00016106 -0.00012230 -0.00019805
0.83656424 0.51672018 0.63906878 0.00025382 -0.00004259 -0.00002224
0.29837680 0.33113500 0.62362945 -0.00030592 0.00002184 0.00007958
0.48362952 0.31297943 0.78265667 -0.00010539 -0.00009292 0.00025401
0.32398072 0.57108241 0.55782396 -0.00005091 0.00000765 0.00005129
0.43960425 0.65784317 0.28146315 -0.00016438 0.00016507 -0.00020191
0.37419572 0.14597459 0.41672882 -0.00011776 0.00004442 -0.00002875
0.62849611 0.75798172 0.37430462 0.00001232 0.00024106 -0.00010349
0.45244962 0.59501076 0.23959714 -0.00008677 0.00012521 -0.00024783
0.41440728 0.20084715 0.36411887 -0.00006353 -0.00006139 0.00000649
0.29031801 0.62156641 0.53992081 -0.00032353 0.00020590 0.00006224
0.49063537 0.50015897 0.81015861 -0.00008825 0.00007200 0.00023409
0.57274407 0.29846963 0.19059631 -0.00000333 -0.00020249 -0.00037341
0.81760144 0.54950672 0.31067064 0.00029875 -0.00000198 -0.00018946
0.48179939 0.72646272 0.61750090 0.00003241 0.00008033 0.00004210
0.60171807 0.90557128 0.63363510 -0.00018658 0.00032663 -0.00005264
0.53448606 0.38610876 0.82405460 -0.00007727 0.00000183 0.00027520
0.50861084 0.25823140 0.23023304 -0.00011736 -0.00015730 -0.00027441
0.65451479 0.48202345 0.84164649 0.00002625 0.00001406 0.00030673
0.32528162 0.47492534 0.50116134 -0.00014404 0.00004394 -0.00001465
0.77942461 0.69798797 0.66772592 0.00009211 0.00017011 0.00004491
0.29852358 0.32862443 0.56285292 0.00018401 0.00005792 -0.00005210
0.38814068 0.17252137 0.38821626 -0.00010075 -0.00002572 0.00000288
0.53467280 0.16160290 0.68340868 -0.00006805 -0.00033981 0.00019758
0.39107710 0.61913258 0.39244577 -0.00017753 0.00008540 -0.00002185
0.76039839 0.35141090 0.50509840 0.00015637 -0.00008833 -0.00002523
0.60240299 0.19527560 0.30099967 0.00010984 -0.00027058 -0.00014273
0.57910174 0.13148148 0.43541366 0.00009322 -0.00029098 -0.00006181
0.41102386 0.56665713 0.73243284 -0.00008779 0.00002775 0.00008313
0.42010668 0.59421468 0.72289973 -0.00009784 0.00004751 0.00009442
0.81425804 0.71631259 0.49163491 0.00025595 0.00013198 -0.00003958
0.35657829 0.28169391 0.65186185 -0.00021071 -0.00013959 0.00012225
0.38380221 0.19973861 0.50134033 -0.00012067 -0.00016020 -0.00007158
0.75075519 0.76109833 0.47045949 0.00009097 0.00025605 -0.00003024
0.53068012 0.72059989 0.31860933 -0.00005493 0.00021177 -0.00017743
0.67008311 0.77845335 0.49798250 0.00002872 0.00019550 0.00001362
0.37746680 0.22141768 0.58684015 -0.00018639 -0.00018879 0.00002528
0.51568335 0.12791798 0.36687964 0.00013658 -0.00014554 -0.00014659
0.79523855 0.64807546 0.31757861 0.00023338 0.00011891 -0.00022013
0.30899066 0.41291571 0.39935932 -0.00020155 0.00002327 -0.00005242
