0.006274 0.270210 0.192437
0.014632 0.048916 -0.500000
-0.025822 0.287886 0.229083
0.214874 0.102047 0.025355
0.224915 0.156016 0.229254
0.120576 -0.003827 -0.210954
-0.145143 0.250275 0.305397
0.189403 -0.244656 0.213773
-0.042060 -0.098763 -0.500000
-0.163609 -0.156756 -0.041711
-0.281566 0.010836 0.026987
0.220868 -0.217229 0.235463
0.001711 -0.075027 0.494140
0.242782 -0.122938 0.266267
0.047591 -0.216128 -0.037173
0.247317 0.030090 -0.041997
0.116479 -0.106778 -0.187183
-0.125800 0.005875 -0.372234
-0.074459 0.034708 -0.314331
-0.035915 0.172541 0.463776
-0.177567 -0.099223 -0.053628
-0.153012 -0.209186 -0.019771
-0.108497 -0.053060 -0.274936
-0.058283 -0.112881 -0.385501
-0.170921 0.102250 0.408401
0.066501 0.121256 -0.493014
0.063817 0.224049 -0.061032
0.120527 0.070410 -0.497249
0.116277 0.104828 -0.149039
0.002795 -0.005823 -0.360625
0.011862 0.242769 0.017341
0.103006 0.010806 -0.246696
-0.134050 -0.176255 0.423589
-0.028470 0.084348 -0.346979
0.017973 0.258162 -0.021064
-0.221014 -0.173653 0.159284
-0.173328 0.011442 -0.172682
-0.045464 0.111303 -0.383539
0.060005 0.024898 -0.500000
-0.126741 0.031807 -0.171299
0.217454 0.142902 0.063081
0.038011 -0.129040 -0.425061
-0.023231 -0.289035 0.059323
0.031927 -0.120667 -0.364130
0.125109 -0.125146 -0.165739
-0.064372 0.114864 0.476869
-0.034654 -0.049554 -0.500000
-0.154997 0.132320 -0.046484
0.077152 -0.242858 0.380841
0.243197 0.074916 -0.018487
-0.022486 -0.167212 -0.138066
0.033313 0.075391 -0.254021
0.029761 -0.308005 0.100048
0.137039 0.227917 0.115215
0.111171 0.051442 -0.371543
0.102744 -0.132238 -0.181877
-0.234622 -0.146136 0.113321
-0.099117 0.037410 -0.500000
0.105037 -0.070506 0.447796
0.103649 -0.006477 -0.220989
-0.047591 0.299400 0.232529
0.056959 -0.115655 -0.373927
-0.235175 0.137137 0.157285
0.265933 0.058017 0.181628
-0.253063 -0.107043 0.348938
-0.151224 0.016708 0.472355
-0.177046 -0.071558 -0.111597
0.147192 -0.246174 0.157141
-0.057542 -0.155423 -0.127321
0.041328 0.190023 0.417338
0.090558 -0.070243 0.486624
-0.101575 -0.015899 -0.313177
0.254989 -0.168739 0.255948
0.020996 -0.126617 -0.236325
0.069174 -0.228708 -0.024043
-0.031033 -0.283538 0.096891
0.088604 0.019339 -0.500000
-0.221682 0.074000 0.009289
-0.171466 -0.150605 -0.054754
-0.029532 -0.132028 -0.423845
-0.189173 -0.045178 -0.132259
-0.230111 0.061841 0.019312
-0.014096 -0.126684 -0.383571
-0.107001 0.036781 -0.359338
-0.116816 -0.061534 -0.419278
0.125817 0.254685 0.138741
-0.087114 0.291995 0.246169
-0.110969 0.061064 -0.412438
0.220813 -0.169089 0.268823
-0.216182 -0.184089 0.167705
-0.205560 0.210827 0.091555
0.258043 -0.021567 0.369655
0.274152 0.122810 0.231157
0.194567 0.205647 0.092953
0.138398 -0.263427 0.145555
0.270306 -0.125116 0.070895
-0.059998 -0.042323 -0.344140
-0.246712 -0.131767 0.133070
0.246568 0.000885 -0.052004
0.265799 -0.085792 0.300826
0.149993 0.209617 0.346823
0.050561 -0.136601 -0.496310
0.210260 0.041784 0.393003
0.247912 0.170584 0.232019
-0.107147 -0.178134 0.437717
0.075507 0.051392 0.461237
0.067582 0.259910 0.143749
0.110971 -0.254354 0.164021
0.206974 -0.142838 0.051372
0.234583 -0.111389 0.311084
0.135189 0.045161 -0.162967
0.170685 0.216018 0.063849
-0.105104 0.009692 -0.312841
-0.079606 -0.067469 -0.222356
0.242140 0.111952 0.041590
0.224987 0.062873 -0.017465
-0.088399 -0.003262 0.463488
0.126938 -0.162630 0.416783
-0.138381 0.016156 -0.451360
-0.006638 0.099833 -0.327179
-0.064851 0.103215 -0.368524
-0.007421 -0.173901 -0.103962
0.107533 0.071013 -0.428017
-0.034170 -0.005225 0.462041
-0.254244 -0.074644 0.091956
0.239772 0.085108 0.031212
0.042508 -0.233909 0.381899
0.245598 -0.128333 0.309895
-0.072504 0.085651 -0.360061
-0.138226 0.223190 0.093558
-0.036643 -0.120577 0.487073
0.144836 0.120641 -0.113194
-0.027067 0.182028 0.423363
-0.267940 0.066609 0.188450
-0.071455 0.006237 -0.339167
0.001038 0.081447 -0.500000
0.279962 0.014285 0.130113
0.059434 -0.223779 -0.029342
0.119774 0.214437 0.321971
0.259438 -0.039967 0.334592
0.278901 0.084615 0.167058
-0.071813 0.138466 -0.140491
-0.192161 -0.235138 0.200902
0.070835 -0.033463 -0.271957
-0.150227 -0.146504 0.428231
0.101714 -0.086909 0.481303
0.252379 0.098333 0.199870
0.172300 0.209508 0.103540
0.232869 -0.129464 0.298086
0.109731 0.000248 -0.354636
-0.253823 0.032117 0.047812
-0.258822 -0.141334 0.138700
-0.114628 0.174079 -0.104956
-0.198419 -0.160818 -0.042457
-0.297220 0.044729 0.238685
0.010462 -0.112099 -0.236302
0.267524 0.055063 0.165654
-0.191944 0.156482 0.344711
0.223061 0.100608 0.037094
0.158941 -0.244108 0.206159
-0.013820 -0.110497 -0.264469
0.270169 0.086431 0.213941
0.087662 0.255309 0.145983
-0.010853 -0.277980 0.105523
0.044202 0.121740 -0.241005
-0.171735 0.183964 0.318111
-0.291142 -0.069808 0.084392
0.295861 -0.073213 0.111512
0.052330 0.042321 -0.291467
-0.008495 0.269575 0.004864
0.172035 -0.203278 0.036638
-0.287994 -0.069166 0.297062
0.017358 0.009215 -0.500000
0.065289 0.101909 -0.378151
0.171703 -0.071947 -0.083029
-0.086483 0.086101 -0.247794
0.030678 0.116128 -0.378351
-0.138143 -0.225442 0.035740
0.304457 -0.034597 0.133551
-0.172585 0.202527 0.110291
-0.041843 0.095729 -0.500000
0.072070 -0.125016 -0.465305
-0.215581 -0.171181 0.141564
0.028312 0.086584 -0.329021
0.152279 0.052333 -0.173763
0.011627 -0.221748 -0.097913
-0.200721 0.073081 0.401347
0.115121 0.084262 -0.150643
0.244815 0.155240 0.262926
-0.165244 0.201571 0.303661
0.191680 -0.248794 0.192570
0.008172 0.037535 0.489230
-0.212205 0.166302 0.125071
0.025255 0.020876 -0.360625
0.042269 0.130427 -0.464242
0.075099 -0.245452 0.370049
-0.072751 -0.266917 0.031503
0.078096 -0.274454 0.153366
-0.283373 -0.056036 0.054018
0.121593 -0.051798 -0.500000
0.191685 -0.028701 -0.068610
0.235843 0.134059 0.052263
-0.133923 -0.247228 0.032661
-0.217922 0.122594 -0.044332
-0.016365 -0.088603 -0.500000
-0.035431 -0.127282 -0.414700
0.088963 0.293427 0.140438
-0.179493 -0.214256 0.189284
0.224679 0.008801 0.414071
-0.103444 -0.057105 -0.230144
-0.117770 0.238215 0.085672
0.105586 -0.201108 -0.022763
-0.081091 0.099079 -0.422539
-0.094287 0.049920 -0.349601
0.173314 -0.093048 -0.098111
0.016080 -0.007230 0.499539
-0.115127 0.155978 -0.072793
0.135411 0.142108 -0.126522
0.086439 0.082708 -0.366118
0.026146 -0.114603 -0.500000
-0.164653 -0.050553 -0.117312
0.134072 0.234336 0.328298
-0.032523 -0.026870 0.493912
0.303916 -0.048407 0.118885
-0.271809 0.044765 0.228546
0.191940 -0.046204 -0.105014
0.183547 -0.216577 0.225725
0.138663 -0.115970 0.453383
-0.028334 0.117384 -0.381299
0.007377 0.133378 -0.229006
0.067848 -0.051250 -0.349173
-0.047236 0.007126 0.484611
0.123625 -0.181223 0.422921
0.051353 0.042678 -0.304566
-0.243821 -0.195544 0.136300
0.160276 -0.203172 -0.011354
-0.150687 0.027772 0.442019
-0.165807 0.004484 -0.127339
0.036985 -0.235409 -0.062062
-0.029094 0.096593 -0.291199
-0.063171 0.017277 -0.322957
-0.272080 -0.058950 0.318124
-0.012474 0.038182 -0.360625
0.125297 0.065879 0.442606
-0.174486 -0.075457 -0.072958
-0.030090 -0.157132 -0.141610
0.149869 -0.199142 0.026999
-0.059853 0.144315 0.464666
0.054864 0.222365 -0.057372
0.129322 -0.061767 -0.474875
-0.225393 0.163187 0.118261
0.309161 0.009368 0.151796
-0.034042 0.087872 -0.500000
0.050451 -0.229736 0.347180
0.112193 -0.079380 0.444801
-0.039935 0.053638 0.496100
0.068045 0.033685 -0.500000
-0.040102 -0.191702 -0.140159
-0.080566 0.294407 0.240382
0.105020 -0.041244 0.475969
0.120470 -0.046217 -0.415268
0.250888 0.009962 -0.043996
-0.273014 -0.050705 0.263167
0.020315 -0.137321 -0.438284
-0.009779 0.136315 -0.458329
-0.011538 0.285305 0.175039
-0.203533 0.214364 0.127297
0.046903 0.031068 -0.500000
0.020916 0.271079 0.166227
0.117433 -0.099032 -0.181271
0.018231 0.037676 0.494893
-0.058803 -0.148400 -0.133105
-0.276608 -0.087606 0.316125
0.138696 0.250639 0.088106
-0.074139 -0.028216 0.459869
-0.192152 0.107172 0.375219
0.169041 -0.177685 0.032980
-0.254233 -0.051463 0.065402
0.213204 0.051389 0.419201
-0.120705 -0.274213 0.252294
-0.106195 -0.078341 -0.253412
0.055856 -0.123275 -0.193909
-0.122286 0.227567 0.277683
0.090168 -0.009883 -0.240786
0.122185 -0.279178 0.136361
0.223444 -0.016064 0.395828
-0.015479 0.129279 -0.164174
-0.162583 0.161271 -0.057753
0.098369 -0.041856 -0.254256
-0.101371 0.087246 -0.438895
-0.258231 0.138813 0.136265
0.183655 -0.208687 0.029736
-0.157587 0.186597 0.354757
0.303974 0.017876 0.166777
-0.138738 0.001401 -0.448516
0.146110 0.024153 -0.197020
-0.249137 0.012391 0.023235
-0.294412 -0.048699 0.292553
-0.209837 0.179344 0.141994
0.135685 0.238402 0.127373
0.254799 -0.108058 0.326002
-0.126871 0.022103 -0.500000
-0.024984 0.145908 0.436961
-0.038170 0.049901 0.459220
0.033709 0.132551 -0.216289
0.024137 -0.104124 -0.500000
0.239649 -0.154141 0.289703
-0.143156 -0.018718 -0.492190
-0.023736 0.068733 0.488470
0.208277 -0.176426 0.231607
0.095204 0.176929 -0.098180
-0.009482 -0.213182 -0.082421
-0.279311 -0.115497 0.116601
0.040578 0.305259 0.171486
-0.011547 -0.101139 -0.310056
0.227622 0.170827 0.059178
-0.054957 -0.135124 -0.148801
0.041628 0.014473 -0.360625
0.101312 0.096973 0.464632
0.287408 0.045502 0.188757
-0.186044 -0.152405 0.405500
-0.152757 -0.249513 0.227000
0.043150 -0.107022 -0.258054
0.020784 -0.142313 -0.455521
-0.109135 -0.093695 -0.226004
0.100461 -0.202287 -0.031711
0.214443 -0.225338 0.205258
0.137854 0.097501 -0.118785
0.101962 -0.256401 0.146817
0.199865 0.184971 0.042279
0.041453 -0.139497 -0.497689
-0.233029 -0.132757 0.343647
0.076057 -0.291512 0.110057
0.124222 0.048611 -0.500000
0.080809 0.210744 0.352806
-0.077719 0.273552 0.265195
-0.092116 -0.270868 0.270946
0.161522 0.196135 0.291858
0.135903 0.154631 -0.103250
-0.085844 -0.071993 -0.212584
-0.197850 -0.081071 -0.104930
0.027408 -0.237212 0.338954
-0.202426 -0.146394 -0.052888
-0.218996 -0.120944 0.379610
0.000744 -0.117308 -0.250464
-0.105559 -0.256896 0.017514
-0.129630 -0.201759 0.002895
0.157978 -0.105859 -0.145368
-0.148348 -0.226555 -0.007286
0.226672 0.173154 0.045869
-0.220464 -0.199072 0.177061
-0.259995 -0.066302 0.061495
-0.118269 0.065417 -0.239337
-0.033668 0.032821 0.461164
0.123668 -0.073964 -0.490482
-0.068681 -0.136293 -0.199166
0.101978 0.206782 -0.070798
0.135764 -0.094339 0.461730
-0.124269 -0.020908 0.487014
-0.298852 -0.032996 0.282802
-0.006087 -0.100589 -0.500000
-0.256097 -0.085567 0.074191
-0.161595 -0.230809 0.178416
0.080648 0.016903 -0.306511
0.085079 0.179219 -0.088476
0.140057 -0.192386 -0.007306
0.239451 -0.188033 0.228157
-0.022810 0.056407 0.493460
-0.129593 -0.010723 -0.417202
-0.035371 0.022381 0.466237
-0.003391 0.300265 0.173950
0.097298 -0.055730 -0.288639
0.120698 0.061343 0.468291
-0.237759 0.141596 0.166203
-0.082152 0.112054 -0.463552
0.251388 0.006552 -0.026938
-0.163382 0.034894 -0.169565
-0.094623 0.102974 -0.493189
-0.290025 -0.013397 0.050087
0.307022 0.001136 0.129697
-0.052904 0.136235 -0.135960
-0.050810 -0.164143 0.447843
-0.169950 -0.124528 -0.045473
0.216207 0.198240 0.257494
-0.038980 -0.283923 0.092505
-0.012204 0.032052 0.462801
0.035550 0.123776 -0.245888
0.149266 -0.089495 -0.104473
-0.055553 0.093353 -0.500000
0.140462 0.036007 -0.218554
0.233283 0.136402 0.222694
0.212245 -0.063260 -0.090474
0.096596 0.098468 -0.465978
-0.038569 -0.097644 -0.289563
-0.137566 0.040235 -0.478197
-0.203043 -0.050116 -0.112606
0.083081 0.047238 -0.287729
0.073758 0.280740 0.170161
-0.117877 0.233867 0.299993
0.228139 -0.149243 0.283487
0.112921 0.204418 0.368340
0.003503 -0.181834 -0.089926
0.084200 -0.024358 -0.250690
-0.124709 -0.025143 -0.406359
-0.104051 -0.248961 0.013578
-0.069029 0.090191 -0.259419
0.269969 -0.016030 0.132816
-0.056314 -0.091101 -0.332023
-0.082013 -0.277764 0.232054
0.094102 -0.298771 0.146532
0.087561 0.054487 0.480950
-0.064316 -0.112408 -0.373805
0.053115 -0.118348 -0.408397
-0.009300 0.087255 -0.296471
0.072611 0.111618 -0.500000
0.048994 0.292520 0.142345
0.051312 -0.231481 0.390239
-0.286206 0.088918 0.169790
-0.173331 -0.247184 0.171010
0.090253 -0.098234 -0.197987
0.065747 -0.008675 -0.500000
-0.162205 -0.131001 0.385739
-0.061489 0.275623 0.253687
0.140865 0.200658 0.345658
0.097185 -0.023856 -0.500000
0.042375 -0.307922 0.112975
0.143466 -0.093994 -0.110024
0.122062 0.020154 -0.405899
-0.179588 0.194924 0.102507
-0.072668 -0.012511 -0.286173
-0.107831 -0.092705 -0.451351
-0.158148 -0.019723 -0.120267
-0.123228 0.026262 -0.210843
0.124329 0.233044 0.108638
0.137586 -0.106566 0.458800
-0.057087 0.109824 0.485842
-0.043935 0.265673 0.227344
-0.111607 -0.001947 0.456845
0.220080 0.002130 -0.064480
-0.255068 0.096771 0.181234
0.148953 -0.210643 -0.018643
0.073109 0.083313 0.484352
0.045835 -0.124956 -0.500000
-0.100011 0.266695 0.234117
0.082182 0.085207 -0.500000
0.031743 0.225372 0.401863
0.013172 -0.033040 0.494063
0.210033 0.022693 0.380212
0.015389 0.273159 0.195184
0.152908 0.054069 0.453426
-0.235512 -0.125374 0.364752
-0.261698 0.165641 0.146840
0.258994 0.052029 -0.013598
-0.251157 0.011518 0.051735
-0.038560 0.075464 -0.500000
0.080157 -0.040540 -0.260619
0.263744 0.156968 0.231231
-0.117568 -0.007485 -0.500000
-0.034189 -0.091009 0.477529
-0.097668 0.172433 -0.096050
0.038404 0.120848 -0.424770
-0.191684 -0.150239 -0.018913
0.116889 0.020256 -0.242366
-0.115222 0.062052 -0.426105
-0.053534 0.168171 -0.125738
-0.173279 -0.231787 0.208779
-0.121348 -0.053701 -0.422521
0.108514 0.032376 -0.208932
0.214299 0.173690 0.241374
0.105210 0.058982 -0.393537
-0.215262 0.205300 0.135048
-0.055988 0.105631 -0.389809
0.159304 -0.264661 0.160809
-0.021807 0.000632 0.497420
-0.025456 -0.116996 -0.361320
-0.209183 -0.179893 0.146793
-0.306812 0.029920 0.239728
-0.057968 0.034424 -0.339296
-0.023996 0.060671 -0.300935
0.073680 -0.241057 0.389142
0.228964 -0.175351 0.050284
0.126232 0.236372 0.097562
0.033080 -0.301293 0.090787
-0.202791 -0.152545 0.382420
0.034296 -0.228178 -0.084463
0.114335 -0.104245 -0.136805
0.027527 0.135845 -0.496214
0.198947 0.180671 0.084384
0.053616 -0.032245 0.496977
-0.263321 -0.069941 0.328947
0.056470 -0.038847 -0.500000
-0.050843 0.262684 0.010562
-0.021246 -0.138837 0.456740
0.062447 -0.121374 -0.433221
-0.178755 -0.036749 -0.093043
-0.176482 -0.227016 0.164077
0.218932 0.034533 -0.022711
-0.038278 -0.092546 -0.338043
-0.092783 -0.174702 0.426565
-0.264704 -0.157529 0.136664
-0.096806 -0.120320 -0.213361
0.018909 0.211851 0.394958
0.271400 0.067178 0.199455
-0.165279 0.022625 -0.146634
-0.178629 0.004288 0.443661
0.053431 0.041645 -0.500000
0.042820 0.220460 -0.008462
0.123727 0.013987 -0.374129
0.160697 0.217297 0.293374
0.208709 -0.228247 0.197817
-0.100578 0.243344 0.277660
-0.297688 0.069722 0.186754
0.039734 0.281194 0.145129
0.099272 -0.146092 0.420533
0.010585 0.014364 0.499531
0.120549 -0.090677 -0.168482
-0.065896 0.063157 -0.289203
0.029880 0.185106 0.424711
-0.193278 0.061889 0.403917
0.051132 0.114785 -0.238103
-0.088843 -0.283326 0.228960
0.308788 0.030257 0.153000
0.053365 0.227680 0.376380
-0.000219 0.123863 -0.412337
0.041444 -0.094400 -0.242434
0.101016 -0.044843 0.485960
-0.012454 0.053635 0.480357
-0.250145 -0.095311 0.301477
-0.047712 -0.263275 0.294469
0.176532 0.033801 0.420725
0.298302 0.051289 0.150649
-0.002155 0.162420 0.439415
0.259052 0.069617 0.001882
0.218377 0.168972 0.033562
0.015960 -0.130918 -0.414980
-0.087974 0.049995 -0.219884
0.222866 0.168895 0.233497
0.059288 -0.306619 0.116815
0.024726 0.284441 0.198075
0.157526 -0.220708 0.019313
0.251505 -0.022207 0.383144
0.004688 -0.282781 0.114751
0.138037 0.112080 -0.154719
-0.227308 0.150170 0.133842
0.050023 -0.126029 -0.245447
-0.194811 -0.142613 0.400280
0.156089 0.074676 0.423495
0.200010 0.059538 0.437161
-0.093111 -0.106688 -0.182165
0.132720 0.067006 -0.143488
-0.155951 -0.171824 -0.029787
0.115578 -0.115616 -0.189001
-0.168054 0.130263 0.378626
-0.073733 -0.084575 -0.353303
0.208519 -0.029552 -0.089781
0.050270 -0.242095 0.338658
0.198614 -0.018908 -0.058921
0.181549 0.194035 0.053207
-0.170293 -0.085195 -0.087084
0.085684 -0.135124 -0.195943
0.096169 -0.089627 0.453396
-0.196043 -0.102900 -0.091741
-0.206171 0.103742 0.412654
-0.011420 -0.086022 -0.313999
0.090164 -0.228075 0.378227
-0.080540 -0.056397 -0.233671
-0.056653 0.112970 -0.418867
0.244474 -0.003746 0.360022
-0.144017 0.000506 -0.147923
-0.159884 -0.272336 0.210221
-0.082326 0.000128 0.481130
0.254623 -0.076326 0.087117
-0.209612 0.135619 -0.045611
0.008444 -0.086064 0.478462
-0.170282 -0.222023 0.196794
-0.254232 -0.093337 0.107756
-0.136414 0.023084 -0.206124
0.069445 -0.112723 -0.179440
0.141392 -0.249125 0.193445
0.201841 0.169535 0.257550
-0.268510 0.069092 0.214020
0.093581 -0.166098 0.437289
-0.281502 -0.080245 0.300022
0.091227 -0.070515 0.453360
0.036557 0.087651 -0.336932
-0.090225 -0.160381 0.462527
-0.010960 0.150367 -0.158320
0.020083 0.094437 -0.249438
-0.066056 -0.001835 -0.356667
-0.098341 -0.094296 -0.243043
-0.114766 0.040446 -0.186555
-0.081456 -0.101700 -0.409850
-0.167240 -0.238521 0.215293
-0.063529 0.034429 -0.500000
-0.290725 -0.038041 0.072855
-0.065570 -0.165223 -0.131594
-0.231588 -0.199364 0.170158
-0.085071 -0.237058 0.047073
-0.113973 -0.139568 0.432098
0.272392 0.022858 0.144687
0.260154 -0.090214 0.337680
0.227614 0.023932 0.380128
0.172619 0.226269 0.312455
-0.053325 0.006155 -0.359513
0.273429 -0.082870 0.117814
-0.081388 0.166201 -0.143236
0.059885 -0.235460 -0.035522
-0.295814 0.099180 0.188658
0.110475 0.038070 -0.198237
0.260433 -0.144600 0.261895
-0.113186 -0.026722 0.455065
0.135463 0.029242 -0.457279
-0.150618 0.046578 -0.178824
0.005941 -0.214262 -0.107750
-0.202907 -0.147177 0.390750
-0.165800 -0.054070 -0.099913
0.025533 -0.284187 0.125824
0.005549 0.179017 0.447284
0.058798 -0.030057 -0.500000
-0.043105 0.033462 -0.500000
0.118526 -0.231452 0.000232
-0.241930 0.126322 0.167985
-0.183207 -0.046853 -0.084599
-0.033689 -0.072874 -0.500000
0.155317 0.059451 0.460448
-0.241739 0.151377 0.126226
-0.025039 0.135807 -0.467163
0.054929 -0.008488 0.468977
0.012460 -0.136699 -0.433334
0.019155 0.185056 0.437414
0.050858 0.030403 0.489023
0.135589 -0.197207 -0.015386
-0.045914 0.111086 -0.397461
-0.172367 -0.018373 -0.158313
0.086010 -0.048753 -0.263651
-0.098880 -0.094489 -0.500000
0.018567 -0.211378 -0.056695
-0.274645 -0.139187 0.103798
0.084808 0.219357 0.395007
-0.064936 0.088609 0.473142
-0.195253 0.220245 0.085540
-0.143560 -0.233533 -0.001219
-0.110670 -0.068213 -0.500000
-0.190137 -0.110331 -0.087965
-0.141007 -0.029185 -0.491532
0.232744 -0.006013 -0.023191
0.136543 0.123037 -0.144990
0.014355 0.279566 0.161389
0.002825 -0.095818 0.484425
-0.011109 -0.288358 0.107096
-0.120996 -0.245777 0.007842
0.072175 -0.070639 -0.332579
-0.195655 -0.169009 -0.036765
0.170699 0.076846 0.421883
-0.080839 -0.276101 0.036554
-0.149416 0.200513 0.303669
-0.002470 -0.043059 0.499087
0.009731 -0.144483 -0.461437
-0.063995 -0.108164 -0.500000
0.012935 -0.302396 0.083449
0.027694 -0.096195 -0.331133
-0.016301 0.024764 -0.360625
0.059016 0.096850 -0.276986
-0.178148 -0.203016 -0.007844
-0.095620 -0.082681 -0.255385
-0.078524 -0.281148 0.283076
-0.148021 0.024640 -0.202507
-0.033833 -0.126416 0.446905
-0.122935 0.035205 -0.413206
-0.142769 -0.257470 0.189262
-0.107379 0.020784 -0.357203
-0.265312 -0.101568 0.074703
0.101552 0.212399 0.382577
-0.191140 -0.132195 0.354438
-0.118650 0.062180 -0.500000
0.257447 -0.090304 0.069713
-0.278332 -0.123321 0.091551
-0.293542 -0.058964 0.289808
-0.103086 -0.011274 -0.275282
-0.280973 -0.002486 0.272481
-0.076556 -0.104588 -0.372141
0.119981 0.040498 -0.500000
-0.005642 -0.028510 0.461127
-0.049880 0.276346 0.201085
-0.005187 -0.083779 0.494994
0.008706 0.234122 0.013972
-0.181452 0.200441 0.348889
-0.276191 0.081896 0.170981
0.261908 0.112054 0.187043
-0.110778 -0.259719 0.214255
0.048545 0.001304 0.480623
0.116487 0.070536 -0.155653
-0.268509 -0.030606 0.291524
-0.196570 -0.194458 0.158926
0.112285 -0.051374 -0.391984
-0.270655 0.018331 0.233848
-0.156775 0.196347 0.350704
0.187562 0.164881 0.059866
-0.172020 -0.104431 -0.076364
-0.074592 -0.124139 -0.211831
-0.153408 -0.132535 0.404470
0.019023 0.132311 -0.447953
-0.134372 -0.271723 0.199697
0.134178 0.093879 0.467385
0.032234 0.038335 -0.360625
0.087909 -0.064743 -0.302855
-0.067974 -0.025977 -0.500000
0.103159 0.279288 0.114895
0.117355 -0.291852 0.148805
0.238618 0.129989 0.215086
0.251736 -0.015346 0.353239
-0.072883 0.266009 0.260619
0.178129 0.080969 0.440883
-0.091617 -0.267894 0.062594
0.299557 -0.059861 0.103388
-0.063587 0.124027 -0.492888
0.107768 -0.202398 0.393535
0.210411 0.119975 0.040178
-0.143405 0.214496 0.082617
0.051308 -0.112508 -0.250146
0.103486 -0.230033 -0.005036
0.277437 -0.052064 0.133236
-0.051608 0.302650 0.218299
-0.085598 -0.109046 -0.229581
-0.157175 0.176186 0.331952
-0.246837 -0.086628 0.345947
0.239133 -0.139902 0.252732
-0.145337 0.194682 0.329295
-0.176991 -0.107040 -0.048573
-0.059447 -0.262435 0.282573
0.196426 0.013166 0.398927
-0.128881 0.015996 -0.419400
-0.048554 -0.255176 0.054082
0.083632 -0.264934 0.127267
-0.014655 -0.139827 -0.444146
-0.077464 -0.112152 -0.428354
0.062607 -0.035678 0.496544
0.051491 0.225519 -0.008683
0.122437 0.003500 -0.383690
-0.042103 0.110644 0.487551
-0.037100 0.104729 0.452549
-0.209341 0.169583 0.134168
-0.154238 0.027360 0.463383
-0.030658 0.123806 -0.424226
-0.235976 -0.091064 0.351767
0.072570 -0.062707 -0.344994
0.148010 0.120205 -0.128887
0.093712 -0.174326 0.396732
-0.205142 -0.054284 -0.103910
0.218385 0.091643 0.006256
-0.014097 0.138064 -0.482474
0.112175 -0.078547 -0.440038
-0.250838 -0.075882 0.336130
-0.044779 0.111119 -0.500000
0.049063 0.224277 0.410512
0.121512 -0.078142 -0.482420
-0.259859 -0.165448 0.142005
-0.013715 0.231482 0.010421
-0.168615 -0.161138 0.380588
-0.094406 -0.115623 -0.178931
-0.190465 0.029905 0.425881
-0.153732 -0.152703 0.382377
0.088584 -0.123858 -0.212732
0.065862 0.231284 0.370263
-0.073359 -0.138848 0.437382
0.144528 0.041129 -0.210640
-0.039296 0.014196 -0.360625
-0.078393 -0.166815 0.463593
0.115901 0.222425 0.325539
-0.111810 -0.035746 0.469568
0.209154 0.006292 0.377323
0.197421 -0.030130 -0.088646
0.044919 -0.118960 -0.383040
-0.111316 -0.064690 -0.374720
0.066520 -0.291375 0.146835
-0.068290 -0.129292 -0.492777
0.107952 -0.101154 -0.189930
-0.243163 0.050351 0.035142
-0.147698 0.163958 -0.090359
-0.288193 -0.056690 0.086665
-0.078095 -0.283644 0.057181
0.266065 -0.135457 0.276822
0.132702 0.076256 0.433905
-0.103085 0.036247 -0.213278
0.045171 -0.234927 -0.047775
0.033985 0.116452 -0.405917
-0.057984 -0.120910 -0.500000
0.044874 0.049207 0.496837
-0.259912 0.034381 0.004606
0.121913 -0.179452 0.431798
-0.143297 -0.140219 0.425490
0.207570 -0.235390 0.205765
0.217259 0.008590 -0.056152
0.061825 -0.097465 -0.205752
0.095518 0.088600 0.482506
-0.290175 -0.040039 0.055248
0.231217 -0.117157 0.295541
0.146173 -0.275197 0.182101
-0.044802 0.074581 -0.359882
0.281284 0.123861 0.220701
-0.226468 -0.202999 0.134152
0.090154 -0.101479 -0.500000
-0.274667 -0.042463 0.044133
0.105869 0.247158 0.135779
-0.024035 -0.015295 0.498820
0.038520 0.094822 -0.344883
-0.121909 0.018972 -0.384934
0.187676 -0.183256 0.006580
0.296027 -0.064653 0.120508
0.081259 0.263998 0.122901
0.296082 -0.037546 0.140648
-0.287207 0.121696 0.175082
0.121018 0.181149 -0.076528
-0.258493 -0.083165 0.338907
0.213960 -0.229356 0.213256
-0.203251 -0.129948 -0.038362
-0.018163 -0.144077 -0.463726
-0.159683 -0.011245 -0.165381
0.225724 -0.042469 0.350328
0.018131 -0.283289 0.332946
0.228818 -0.204501 0.216032
-0.256743 -0.030623 0.046338
0.133857 -0.218152 -0.028237
-0.080089 0.238566 0.062479
0.167516 0.042669 0.438419
0.103272 0.059143 -0.500000
0.278284 0.021449 0.171104
-0.049555 0.105688 -0.363413
-0.286241 -0.105095 0.100991
0.113218 -0.160203 0.406454
0.063721 -0.134881 -0.203606
-0.268370 0.001373 0.021986
-0.168988 0.008826 0.432674
0.220559 -0.142088 0.074042
-0.197685 -0.200388 0.149056
-0.248301 -0.102449 0.092758
-0.074038 -0.110818 -0.418605
0.090042 -0.233637 -0.051182
0.144504 -0.098129 -0.161074
0.152302 0.212646 0.081942
-0.134971 0.259212 0.070913
0.134141 -0.122905 0.461380
0.167764 -0.194264 -0.005409
0.092482 0.077157 -0.396885
0.065160 -0.030244 -0.360148
0.072687 -0.103551 -0.396723
0.146413 0.227922 0.310934
-0.179542 -0.008489 -0.159983
-0.263212 -0.167207 0.122619
0.110063 0.076897 -0.446941
0.075683 0.185323 -0.048132
0.302050 0.070531 0.181812
0.271492 -0.089461 0.315836
-0.096762 0.001118 0.477270
0.118084 0.028895 -0.384227
-0.170544 0.020578 -0.176146
0.258158 -0.054230 0.320505
0.032347 -0.275979 0.334335
-0.073746 0.096121 -0.500000
-0.248479 0.112730 0.164328
0.230958 0.138850 0.016929
-0.028631 -0.075606 0.472670
-0.088748 -0.141487 0.430073
-0.252568 0.085582 -0.012646
-0.041972 -0.297184 0.274667
-0.179306 -0.215687 0.165624
0.064753 -0.048636 0.461577
-0.194202 0.117964 0.413385
-0.127553 -0.246964 0.208536
-0.021037 -0.079462 -0.500000
0.002886 -0.071362 -0.358439
0.001558 -0.037234 0.460921
0.049002 0.037333 0.494714
-0.110240 -0.056914 -0.239446
-0.177459 0.136369 -0.029324
-0.304218 -0.001248 0.232749
-0.187706 -0.066930 -0.070126
-0.036399 0.164951 -0.173796
-0.000567 0.095010 -0.311753
-0.181980 -0.145195 -0.063479
0.050300 -0.096021 -0.338925
0.221824 0.031178 0.385402
-0.020455 0.133619 -0.202302
0.037127 -0.234126 0.341454
0.098934 -0.139143 0.429550
0.025130 0.078845 -0.500000
-0.136584 -0.161308 0.438255
0.109026 -0.193363 0.393763
0.083820 0.168810 -0.072339
-0.044120 0.027222 0.483591
0.117738 -0.081855 -0.469046
-0.060590 0.075121 0.482471
0.054015 0.038957 -0.314509
0.169617 0.192432 0.069422
-0.052168 0.156690 -0.170522
0.114392 0.094848 -0.133068
0.062085 -0.054507 0.482022
0.214093 0.012315 -0.031875
-0.263783 0.063148 0.027601
-0.029923 -0.299079 0.086510
0.023320 0.223237 -0.026549
-0.036839 0.066141 -0.272543
0.080931 0.064675 -0.281633
-0.155052 0.164682 -0.064765
0.212465 -0.008715 0.395034
-0.084932 -0.015379 0.456752
-0.015640 -0.260748 0.328146
-0.016753 0.112222 -0.500000
-0.279591 -0.111303 0.083976
-0.292566 0.064850 0.226595
-0.063347 -0.257816 0.074580
0.016804 0.038253 0.464737
-0.160650 -0.178501 0.005221
0.088585 -0.061322 -0.281629
-0.057486 -0.053046 -0.322283
0.109320 -0.018778 -0.279377
-0.118307 0.227038 0.054046
0.034530 0.226428 -0.001363
0.267348 -0.117544 0.307711
-0.149379 0.223601 0.062790
0.074080 0.101600 -0.500000
0.139065 -0.023898 -0.463397
-0.267510 -0.120893 0.084376
0.146442 0.092836 0.441403
-0.130631 -0.024768 -0.425782
0.039387 -0.103303 -0.500000
0.082707 -0.046870 0.454635
-0.045763 0.113377 0.447344
0.058648 -0.111277 -0.386736
-0.035941 0.125030 -0.433793
-0.125315 0.016988 -0.374225
0.145879 0.050123 -0.162955
-0.309307 0.018042 0.239397
-0.166173 0.232624 0.305987
0.240865 -0.108557 0.090368
0.070061 -0.241963 0.355200
-0.127797 -0.248072 0.039677
0.099042 -0.008545 -0.336238
-0.178737 -0.160994 0.378945
0.049905 0.061453 -0.357214
0.117659 -0.079534 -0.457467
-0.068518 0.121786 -0.481014
-0.168655 -0.136023 0.412146
-0.001720 0.138841 -0.471868
-0.065973 -0.173288 -0.137187
0.207297 0.036950 0.433087
-0.149487 -0.239220 0.186709
0.232049 -0.008472 0.354737
0.088742 -0.085294 -0.364144
-0.199114 0.162340 0.353009
0.105636 -0.053380 0.487047
0.209443 0.198071 0.056177
-0.114085 0.252314 0.248297
0.080007 0.113614 -0.489956
0.222047 0.042262 0.409827
0.079255 0.012711 -0.500000
-0.151615 0.216085 0.099816
0.094228 -0.260050 0.152817
0.214921 -0.171458 0.259281
-0.026660 -0.148014 0.467644
0.135812 0.062232 0.438764
0.073438 0.078119 -0.293258
-0.070312 -0.129236 -0.153427
-0.031492 0.075512 -0.273626
0.261153 -0.046923 0.362465
-0.044615 0.164937 -0.169995
-0.028203 0.166859 0.467634
-0.089098 -0.099221 -0.239652
-0.261407 -0.018847 0.072438
-0.235756 -0.137473 0.118266
-0.150547 -0.200182 0.021138
-0.201150 0.179614 0.110471
-0.261395 -0.171340 0.133843
-0.072389 0.058375 -0.235164
-0.063553 -0.086913 -0.339079
0.103572 -0.294422 0.133523
-0.100751 0.084139 -0.500000
-0.172613 0.140335 0.356921
0.097211 -0.194525 0.429374
-0.171735 -0.217124 0.181923
-0.058473 0.173013 -0.148779
0.099677 -0.068120 0.488909
-0.123182 0.264257 0.290803
0.224457 -0.041008 -0.051796
-0.034783 -0.115988 0.451226
0.185595 -0.084653 -0.120983
0.245335 0.063455 0.018392
-0.106299 -0.236224 0.010443
-0.274245 0.042136 0.036433
-0.134561 -0.145849 0.434686
0.292268 0.002191 0.164352
-0.279075 -0.029157 0.246590
-0.076831 -0.055465 -0.265778
-0.164527 -0.168217 0.410312
0.023588 -0.201555 -0.100626
-0.134199 0.139832 -0.061551
-0.034681 -0.106228 -0.300368
0.204111 0.140540 0.031108
0.248155 -0.001270 -0.030929
0.172956 -0.175260 0.012883
0.034283 0.221086 -0.039522
0.133518 -0.281472 0.147831
-0.210613 0.175959 0.109733
-0.174962 0.017529 -0.146852
-0.302691 -0.034329 0.270869
-0.053805 -0.112701 -0.500000
-0.106413 -0.140640 0.425763
0.119797 -0.026354 -0.392316
0.230800 -0.133698 0.264133
-0.090513 -0.047830 -0.500000
-0.255862 -0.029495 0.071214
0.223425 -0.036079 0.367660
-0.170205 -0.076536 -0.083726
0.243214 0.131686 0.020443
-0.082928 0.255437 0.236432
-0.168989 -0.159608 -0.048478
-0.005204 -0.285282 0.329826
-0.017338 -0.094342 -0.318223
0.234716 -0.157415 0.072860
-0.156890 0.004518 -0.182351
-0.268157 -0.022776 0.280611
-0.003350 -0.079551 -0.500000
-0.094125 0.245098 0.261439
-0.144379 0.241616 0.097354
0.072405 0.227948 -0.058651
-0.106738 0.249681 0.079456
0.234906 -0.111573 0.284386
0.148594 0.249447 0.125430
-0.019611 -0.256323 0.310932
-0.180587 0.226391 0.116278
-0.132960 0.062369 -0.203368
0.011688 0.118336 -0.394285
0.094282 0.101203 -0.499758
-0.158594 -0.002739 0.439175
0.115315 0.035677 -0.183188
0.173534 0.050168 0.410741
0.304486 -0.018873 0.145348
0.000290 -0.106164 -0.246443
0.073012 -0.192613 0.389262
-0.029819 0.303092 0.194850
0.033466 -0.011991 -0.500000
-0.081614 0.095131 -0.413758
-0.013159 -0.126189 -0.392869
0.019954 0.220226 0.406150
0.023571 0.140141 -0.217479
-0.080895 0.055693 -0.269753
-0.287565 -0.053183 0.265733
0.001944 -0.303373 0.105330
0.240364 -0.130226 0.044811
0.157744 0.210977 0.074373
0.108665 -0.282221 0.127933
0.034927 -0.240818 0.333136
0.094469 -0.061185 -0.360625
0.196955 -0.071332 -0.075278
0.100996 0.020411 -0.341263
0.001705 -0.105284 -0.297612
-0.266731 0.098542 0.160986
0.025276 -0.126174 -0.369120
-0.199160 -0.064959 -0.074904
0.117889 0.241330 0.103369
-0.124021 0.025622 -0.410044
0.087344 -0.222125 0.408103
-0.073049 -0.025061 -0.282726
-0.236109 0.066047 -0.014847
0.199049 -0.236882 0.190246
0.044257 -0.016123 0.497514
-0.298555 -0.023595 0.245262
-0.226334 0.122234 -0.031026
-0.188771 -0.178510 -0.035871
-0.094140 -0.063496 -0.274193
-0.090445 0.063007 -0.215002
-0.180466 0.146345 0.393872
-0.004209 0.045935 0.481157
-0.222933 -0.091885 0.343173
0.237594 0.003699 0.364084
-0.162061 -0.024294 -0.149409
0.089052 0.275982 0.161206
0.071601 -0.045070 -0.357203
-0.042792 0.125962 0.483792
-0.077941 -0.136229 0.457366
0.270934 -0.077627 0.327454
0.066063 0.298203 0.165117
-0.069536 -0.103928 -0.187011
0.012874 0.105237 -0.206307
-0.077859 -0.006058 -0.281326
0.123641 0.147835 -0.080110
-0.016597 -0.097486 -0.359727
0.155265 -0.252936 0.156757
0.105108 -0.050382 -0.500000
-0.035492 -0.059400 -0.349546
0.226291 0.158737 0.064061
0.142647 -0.083524 -0.110897
0.190795 0.019226 0.414562
0.048255 0.206208 0.374864
-0.262598 0.004956 0.062903
-0.091496 -0.029974 0.490665
0.276120 0.115888 0.187667
-0.098682 0.074550 -0.405592
-0.291387 -0.046779 0.076702
0.152432 0.086477 -0.143348
0.050787 -0.271614 0.106384
-0.093597 -0.158333 0.417529
-0.277941 -0.103237 0.114420
-0.044520 -0.280559 0.308884
0.065683 -0.208940 0.369712
-0.042412 0.096622 -0.297289
-0.098886 0.139341 -0.119572
-0.106639 -0.066997 -0.366244
-0.113594 -0.074832 -0.431262
0.035335 -0.277200 0.127773
-0.040982 0.176037 0.456021
0.068631 -0.302862 0.115149
0.113873 0.063613 -0.430694
0.196050 -0.191311 0.222790
0.105298 -0.043347 -0.260101
0.127140 -0.252170 0.148284
-0.036467 0.062007 -0.360052
-0.264696 -0.161232 0.114945
0.141196 -0.001983 -0.494139
0.141732 -0.076273 -0.119522
0.104130 0.199607 0.364362
-0.210935 0.102006 -0.000039
-0.060056 -0.132658 -0.500000
0.067511 -0.056667 0.466555
0.059028 -0.259201 0.360258
-0.195807 0.058954 0.443712
-0.056971 0.134827 -0.144266
0.103771 -0.130720 0.457242
0.069312 -0.035328 -0.500000
0.128843 0.028869 -0.231870
-0.204321 0.096296 -0.008339
0.025680 0.257320 0.003979
-0.100245 -0.001842 0.461585
0.098482 -0.029291 -0.241039
0.115200 0.281278 0.136532
-0.100407 -0.079801 -0.404897
0.052118 0.050014 -0.310404
-0.165300 -0.258085 0.180765
0.018920 0.078632 -0.319546
-0.107086 -0.066292 -0.390167
-0.072830 0.159196 -0.152860
0.086868 -0.114224 -0.460090
0.222022 -0.132044 0.047084
0.011545 -0.006431 0.460787
-0.059100 -0.162510 -0.174177
0.069022 -0.202443 -0.051117
-0.067158 -0.004295 0.464425
-0.062260 0.293631 0.210446
0.069766 -0.044763 -0.500000
0.053294 0.202221 0.415582
0.088040 0.203372 0.354386
0.104411 -0.240160 -0.025863
0.058276 0.217056 0.366581
-0.053166 -0.276233 0.301690
-0.026725 -0.064931 -0.315343
0.185749 0.059083 0.449589
0.043622 -0.223979 0.377086
0.119935 -0.269325 0.134528
-0.110805 0.225441 0.060883
-0.270634 -0.096328 0.313653
0.084913 0.091820 0.474754
-0.065094 0.094958 0.465382
-0.129546 0.010042 0.470547
0.107204 0.201476 -0.061042
0.283389 0.036163 0.140205
-0.124092 -0.022824 -0.370064
0.151885 -0.186018 0.003652
0.041407 0.112053 -0.383362
0.170377 0.201402 0.281378
-0.274321 0.087997 0.211628
-0.004156 -0.305846 0.092097
-0.186381 -0.090902 -0.100818
0.090225 -0.239643 -0.042988
-0.271279 0.056773 0.020009
-0.005501 0.167541 0.421779
-0.245770 -0.114908 0.114822
0.043462 -0.012118 0.461719
0.124624 0.059964 0.454522
0.299735 0.078982 0.179766
0.104758 0.064494 0.481195
0.063331 0.098548 -0.500000
0.077277 -0.207033 -0.056141
0.066231 0.044082 -0.342586
-0.006831 -0.003432 -0.360625
-0.173951 0.206535 0.308636
0.066113 -0.055224 -0.279675
0.193977 0.070133 0.427119
0.104134 -0.105272 -0.146782
0.004987 0.065043 -0.317513
0.067791 -0.033151 -0.300265
0.294223 0.013806 0.170159
-0.133894 -0.014897 0.446991
-0.020115 -0.110904 -0.274014
0.113311 -0.202988 -0.028134
0.208709 0.160182 0.259876
-0.197611 -0.113149 0.356192
-0.092620 -0.058051 -0.345930
0.002470 0.138266 -0.170748
0.057349 -0.003177 -0.500000
0.094921 0.084802 0.449435
-0.095441 0.071977 -0.217975
0.194034 0.205495 0.268735
0.089576 -0.203322 -0.038676
-0.092971 -0.112468 -0.492635
-0.064254 -0.004480 0.492443
0.046430 -0.270156 0.124024
-0.271826 -0.071378 0.278608
0.271869 -0.026019 0.138247
-0.067554 -0.156946 0.430760
0.068790 -0.008450 -0.346671
-0.231434 0.187501 0.148248
-0.003183 -0.217017 -0.105446
-0.247410 -0.114452 0.354150
-0.075008 -0.249932 0.065899
0.260228 -0.080761 0.076133
-0.029649 0.137444 0.474759
0.258488 0.135799 0.200861
0.273964 -0.101244 0.106479
0.164229 0.087917 0.437671
-0.024737 -0.208745 -0.102930
-0.065167 0.075789 -0.295213
0.045053 -0.003554 -0.500000
0.113723 -0.288032 0.135162
-0.006058 -0.129464 -0.405882
0.116021 0.038142 -0.219581
0.089393 0.062939 0.487270
0.194966 -0.082039 -0.094213
0.124864 -0.201890 0.007515
-0.041098 -0.133060 -0.439458
0.031363 0.022709 0.461713
0.217749 0.115055 0.010870
0.138463 -0.123027 0.442569
0.031657 0.268616 0.177757
-0.170094 -0.126690 0.395310
0.260839 -0.137624 0.078789
-0.006677 -0.115978 -0.259161
-0.043151 -0.099774 -0.315903
-0.079833 0.270598 0.038389
-0.066062 0.175021 -0.139472
-0.033770 -0.281679 0.268133
-0.144788 0.237929 0.273832
-0.074982 -0.071777 -0.246325
-0.193379 0.175160 0.339591
0.211780 -0.200568 0.203831
-0.236732 0.084325 -0.025388
0.062007 0.081240 -0.296602
-0.137183 0.037490 -0.499606
0.013792 -0.025225 -0.500000
0.123177 -0.201576 -0.023712
-0.285375 0.077105 0.220147
-0.088361 0.259379 0.067442
-0.037582 0.300751 0.227181
0.153808 0.229667 0.075526
0.051403 0.088072 -0.350111
-0.078179 0.013494 -0.295777
0.104419 -0.229546 -0.044515
-0.123109 -0.166305 0.403694
-0.124900 -0.149302 0.401861
0.076931 0.235178 0.368237
0.151570 -0.109316 -0.120241
-0.165305 0.121399 -0.064643
-0.089374 -0.143484 -0.183681
0.029489 -0.137358 -0.443169
-0.044926 -0.092949 -0.346102
0.147872 -0.224957 0.013396
-0.176475 -0.127224 -0.032843
0.095245 0.036139 -0.322017
-0.170690 -0.224590 0.170797
-0.210770 0.188965 0.142171
0.191205 -0.158310 0.033011
0.126332 -0.027394 -0.419577
-0.190397 0.150287 -0.049083
-0.140692 -0.027470 -0.467458
0.113524 0.093315 -0.143733
-0.052644 -0.188420 -0.133003
0.044944 -0.026163 -0.360625
-0.071973 -0.274927 0.240114
-0.125779 -0.234695 0.000326
0.184006 0.190764 0.314153
-0.297853 0.086388 0.183684
-0.022469 0.028118 0.459992
0.067479 0.085741 -0.360098
0.075315 -0.056408 0.459485
-0.145023 -0.012081 0.444583
-0.019033 0.160385 -0.156465
0.049214 0.005345 -0.500000
-0.113685 -0.035657 -0.500000
-0.057290 0.127452 -0.474238
-0.203072 -0.132150 0.346140
0.120288 -0.018833 -0.229566
-0.071299 0.119031 -0.468543
-0.044196 -0.195237 -0.128191
0.043997 -0.003481 0.468376
0.014324 -0.086350 -0.271267
0.082576 0.075103 0.490201
0.141568 0.094896 0.461153
0.129606 0.197733 0.330456
0.138948 0.001226 -0.455681
0.074201 -0.115440 -0.435758
-0.041498 -0.106565 0.464918
-0.097815 0.007301 -0.500000
-0.164316 -0.145787 0.374598
-0.131456 0.006692 0.450746
-0.010111 -0.133722 -0.421713
0.114617 -0.090326 -0.146741
0.184483 0.203806 0.271860
-0.156740 -0.164422 0.387674
0.280314 0.070850 0.204141
0.265165 -0.070195 0.346334
-0.041531 0.083915 -0.359177
-0.013992 0.283102 0.221291
0.123359 0.008799 -0.402383
-0.235462 0.137041 0.144622
-0.278868 0.137213 0.162171
-0.175369 -0.033044 -0.144969
-0.002286 0.124265 -0.223539
-0.070579 -0.162387 0.468097
-0.127920 -0.253708 0.030952
-0.099185 0.031629 -0.333108
-0.064700 0.300025 0.230580
-0.034231 0.181921 0.431780
0.066418 0.119944 -0.462763
0.084621 -0.207249 -0.020595
-0.067420 0.024084 -0.313042
0.130659 -0.109002 0.470263
-0.031833 0.306292 0.213346
-0.039027 0.299040 0.196098
-0.085920 0.107511 -0.455128
0.216624 -0.049159 -0.056955
0.069440 0.062861 -0.500000
0.037870 -0.038971 0.469993
-0.108442 -0.065625 -0.263134
-0.201186 -0.133623 -0.066880
0.130897 0.226951 0.317944
0.028098 -0.060363 -0.349658
0.058369 0.300122 0.148348
0.133897 0.208796 0.312030
0.073482 0.077648 -0.500000
-0.126409 0.139490 -0.104179
-0.144210 0.128963 -0.078007
0.122858 0.224736 0.366538
0.117943 -0.071281 -0.442234
-0.270519 0.012596 0.241364
-0.007582 -0.058012 0.459528
0.172862 -0.217139 0.008324
0.000645 -0.028411 -0.500000
-0.232708 0.197653 0.115681
-0.118119 0.046024 -0.500000
-0.058152 -0.078271 -0.307563
-0.129429 0.051197 -0.180913
-0.063501 -0.277420 0.245787
-0.072059 0.053296 -0.269306
0.069428 0.084685 -0.260250
-0.062588 -0.122020 -0.432164
-0.002604 0.166932 0.449830
0.215420 -0.190434 0.211244
-0.082201 0.031813 -0.500000
-0.172182 0.208079 0.346356
0.136198 -0.232234 0.001676
0.039742 0.224477 -0.045789
-0.097175 -0.296489 0.250321
-0.062459 -0.132525 0.445396
0.051717 -0.012039 -0.360267
0.262214 0.076429 0.197388
0.036047 -0.062921 -0.500000
-0.094522 -0.098131 -0.189514
0.035839 -0.121172 -0.392905
0.199747 0.043684 0.395196
0.110078 -0.062293 -0.405228
0.153824 -0.229954 0.179873
-0.068695 -0.097203 -0.216273
0.113042 0.150298 -0.122027
-0.070202 0.079750 -0.240847
-0.121596 -0.174012 0.439458
0.097704 0.031191 -0.350483
-0.272612 -0.059977 0.269513
0.208045 -0.053032 -0.058505
-0.140901 0.247545 0.055625
-0.073334 -0.172541 0.456843
-0.251603 0.130218 0.140423
0.105191 0.091461 -0.498010
0.037697 0.234921 0.001479
-0.015197 -0.271117 0.064919
-0.048418 -0.189274 -0.117110
0.088118 -0.047639 -0.500000
0.245726 -0.094628 0.074670
0.143721 -0.278057 0.156690
0.008794 -0.091985 -0.290308
-0.094681 -0.084172 -0.394272
0.018675 0.007491 0.462219
-0.135854 0.029516 -0.161425
-0.055058 0.076757 0.459146
-0.147483 0.253404 0.292564
0.086158 0.059681 -0.299047
0.076779 -0.202960 -0.046461
0.028153 -0.130998 -0.421034
0.217140 0.011703 0.372035
-0.071984 0.235250 0.030755
-0.129133 0.058643 -0.483872
0.094999 0.039301 -0.500000
0.050408 -0.047547 0.481627
-0.093956 -0.135473 -0.179287
-0.280891 -0.011722 0.032924
-0.103672 -0.255334 0.244528
-0.186386 -0.096622 -0.050402
-0.211114 -0.116815 0.336958
0.200533 0.192778 0.305820
0.053538 -0.015206 0.462376
-0.040944 0.008556 -0.500000
-0.202265 0.086378 0.393460
-0.013936 0.137580 -0.472052
0.113339 -0.051520 0.475610
-0.013711 -0.300593 0.072770
0.247931 0.003075 0.379368
0.291874 0.076952 0.164528
-0.076420 0.089383 -0.267260
0.255199 0.096609 0.212691
-0.160983 0.162103 -0.077364
-0.205490 0.136316 -0.024145
-0.007102 -0.056998 0.498071
-0.064913 0.249387 0.015680
0.139364 -0.251188 0.151371
0.112436 -0.031867 -0.278449
0.011285 -0.051199 0.466818
0.161250 -0.259871 0.199461
0.025072 0.085378 -0.247381
0.078886 -0.064632 0.461304
-0.033935 -0.096543 0.462864
0.107418 0.200283 -0.075627
-0.086459 -0.148428 -0.166259
-0.029551 0.126557 0.475031
0.131105 -0.132389 0.460813
-0.272160 -0.121521 0.124686
0.196574 -0.153052 0.045408
-0.179181 -0.220699 0.198475
-0.301854 0.064835 0.219743
0.073050 -0.197581 0.411653
0.140394 0.215575 0.306254
0.034286 0.276417 0.188953
-0.028017 -0.141570 0.479073
-0.277803 0.036716 0.020916
-0.144553 0.154874 -0.099247
0.208636 -0.173808 0.240602
-0.032641 0.161119 -0.181327
0.236791 -0.070021 0.315140
0.230046 -0.060892 0.345857
0.030405 0.130216 -0.446862
-0.004496 0.283720 0.215519
-0.078558 -0.001144 -0.343197
0.138611 -0.031229 -0.493473
-0.001055 -0.006589 0.499967
0.175182 0.039700 0.413026
0.079942 0.098236 -0.422059
0.176272 -0.197403 -0.002091
0.028331 -0.091649 -0.500000
0.005454 -0.128453 -0.378743
0.177510 -0.253910 0.205336
-0.158422 -0.241302 0.219831
0.268972 -0.093704 0.111591
-0.239361 0.173275 0.116024
-0.073098 -0.087003 -0.232676
0.270017 0.096610 0.221066
0.146599 0.255538 0.089831
0.208086 0.003344 0.409073
-0.070598 -0.008880 -0.308904
0.051876 0.194398 0.384436
-0.096877 0.235302 0.038479
0.057594 0.103656 -0.390071
0.070509 -0.028024 -0.285138
0.178408 0.209692 0.278684
-0.258421 -0.174973 0.125594
0.002440 -0.014876 0.461013
0.225438 0.150477 0.023002
-0.106031 -0.269154 0.040222
0.127619 -0.104058 -0.125476
-0.017858 0.195486 0.446358
-0.078887 0.008624 -0.500000
-0.269999 -0.018817 0.249395
-0.097656 -0.144244 0.423435
-0.009048 -0.252496 0.317990
-0.138722 -0.023056 -0.500000
-0.151081 0.167198 -0.073408
0.127075 0.043551 -0.443287
-0.249572 -0.001232 0.050235
0.056594 -0.006240 0.479818
0.014593 0.098777 -0.500000
-0.108368 -0.010491 -0.286559
0.039454 0.116489 -0.256039
-0.222108 0.110379 0.000842
0.052718 0.112148 -0.251859
-0.105968 0.092707 -0.494060
-0.025498 0.013909 0.496612
0.001377 -0.060615 0.460388
-0.124754 -0.163226 0.444746
-0.047110 -0.093538 -0.299769
-0.122173 -0.045944 -0.414360
0.232483 -0.045907 0.370443
-0.102246 -0.033455 -0.357876
0.054865 -0.091900 -0.330864
0.003499 -0.098572 -0.348422
0.113154 -0.089947 -0.478411
0.123751 -0.052089 -0.433634
0.076714 -0.037864 0.494940
0.220170 -0.182156 0.049618
-0.276839 -0.000266 0.230006
-0.183306 -0.183384 -0.003081
0.063654 0.288512 0.133786
-0.109083 -0.040420 -0.251586
0.107334 0.284899 0.141149
0.246312 -0.170407 0.237414
0.257442 -0.100095 0.284742
-0.023835 0.109591 -0.361145
-0.109269 0.236319 0.270178
0.028248 -0.242215 0.368136
0.089915 0.159826 -0.077963
0.159911 -0.105856 -0.115378
0.053802 -0.215527 -0.079575
-0.058551 -0.141937 -0.186525
0.021614 -0.291367 0.080765
0.015630 0.299101 0.162493
0.243022 0.088229 -0.010961
-0.002020 0.185080 0.452063
-0.103580 -0.254495 0.231874
0.121428 0.209872 0.366731
0.076452 -0.210922 -0.022213
0.076744 0.007134 -0.315502
0.018075 -0.229470 -0.080829
0.068205 0.073467 0.491135
-0.176818 -0.142689 -0.020018
0.011637 0.124635 -0.237513
0.090652 0.162934 -0.069576
0.256467 0.164672 0.232569
0.144130 0.233647 0.324279
-0.123918 0.156270 -0.067227
0.269022 -0.034814 0.110370
-0.081400 -0.092984 -0.241620
0.189928 -0.171655 0.052511
-0.197745 -0.123152 0.390611
-0.042841 0.064663 -0.500000
-0.218289 0.087744 0.007545
0.012535 -0.013366 -0.360625
-0.036791 -0.035839 -0.360265
-0.080335 -0.136081 0.447271
-0.086504 0.253759 0.026096
-0.243622 0.053071 -0.006459
0.083389 -0.118757 -0.468531
-0.073801 0.114502 -0.452798
-0.050032 0.154299 0.469897
0.069711 -0.131704 -0.189596
-0.180790 0.135469 0.400969
-0.130512 0.056997 -0.227063
-0.250343 -0.010368 0.051507
-0.022895 -0.271725 0.096813
0.075056 -0.065914 0.475786
-0.053736 0.292815 0.203016
-0.069781 -0.131880 0.456518
0.083382 0.198235 0.369573
-0.307879 0.047082 0.218092
0.305854 -0.037498 0.116269
0.129528 -0.096346 -0.171059
0.158484 -0.194315 -0.008545
0.065101 0.197564 -0.065797
-0.129747 0.022743 -0.427047
-0.133235 -0.283189 0.215061
-0.074759 0.065428 -0.283362
0.023851 0.092828 -0.224552
-0.001858 0.264372 -0.008636
0.057586 0.302225 0.158261
-0.196419 0.101961 0.422701
-0.030000 0.061693 0.495462
-0.204445 -0.150355 0.364246
0.006884 0.025963 -0.500000
0.118989 0.069992 -0.458718
0.099164 0.150267 -0.078924
0.061921 0.211707 -0.020503
-0.021141 -0.267328 0.281776
0.042173 0.012445 0.472613
-0.040760 0.046236 -0.500000
-0.169895 0.103102 0.398434
0.115098 0.066706 -0.167781
-0.033070 0.233557 0.022989
0.061143 -0.219351 -0.074409
0.139373 0.104308 -0.161264
0.088457 -0.040699 -0.307907
0.089287 0.098270 -0.443574
-0.124354 0.264300 0.255171
0.064336 -0.050361 0.490232
-0.103449 -0.293721 0.237924
-0.025300 -0.294008 0.308501
0.200495 0.168544 0.036213
-0.240739 0.028645 0.023606
0.230992 0.120993 0.006590
0.109577 0.242829 0.122790
-0.092420 -0.078148 -0.205956
0.133101 -0.119621 -0.165760
-0.248682 0.000592 0.038140
0.052460 0.119440 -0.435059
0.085284 0.207352 -0.033303
0.032168 -0.270088 0.113989
-0.222700 -0.211290 0.140108
0.233965 0.148688 0.219718
0.075742 -0.027577 0.492599
-0.140008 0.212842 0.328324
0.076567 -0.104487 -0.410032
-0.202810 0.154429 0.372054
-0.194316 0.149018 0.350394
0.221042 0.018565 -0.049620
0.234790 0.166074 0.273559
-0.042783 0.093028 -0.275930
-0.033220 0.026794 -0.360625
0.028899 0.126866 -0.500000
0.074586 -0.217528 -0.065367
0.056883 -0.078722 -0.500000
-0.080660 0.087123 -0.500000
0.093168 0.040735 -0.353167
0.129872 -0.056496 -0.461566
0.232199 -0.193531 0.258464
-0.015018 -0.301824 0.095990
-0.124281 0.259806 0.075233
-0.170608 -0.112884 -0.059248
0.067303 -0.265939 0.126293
-0.116269 0.049903 -0.187441
-0.014209 0.028172 -0.500000
-0.120280 0.235051 0.266113
-0.040286 0.095793 -0.284878
-0.045329 0.058179 0.459075
-0.078496 -0.067975 -0.329842
-0.194204 -0.025395 -0.135480
-0.066984 -0.120896 -0.500000
-0.117152 -0.157558 0.404565
0.001610 -0.144138 -0.500000
0.236480 -0.151152 0.243413
-0.301584 0.010177 0.221396
0.054283 -0.253362 0.378963
-0.194859 0.114339 -0.013704
0.129680 0.066934 -0.195443
0.117019 -0.083422 -0.494466
-0.088171 -0.004631 -0.344611
0.103352 0.063015 -0.381953
-0.061382 0.086444 0.484049
-0.131430 0.020506 -0.165511
0.284490 0.099294 0.177437
0.131617 -0.082466 0.466462
-0.118241 -0.065502 -0.429200
-0.015133 0.020842 0.460679
0.048537 0.097215 -0.278967
-0.138042 -0.269528 0.239602
0.200906 -0.170216 0.059578
-0.206141 0.137354 0.377693
0.264268 -0.037506 0.351403
0.037937 0.133280 -0.475385
0.056689 -0.035702 -0.359779
0.229303 0.031950 0.406397
0.237241 -0.167666 0.050205
-0.007597 -0.097753 -0.255234
0.262195 -0.126719 0.090323
0.052209 0.097285 -0.232363
0.106353 -0.004169 -0.344810
0.059751 0.125457 -0.487053
-0.037061 -0.066791 -0.299863
-0.197153 -0.111942 0.365227
0.093757 -0.296004 0.125365
0.019139 -0.128480 -0.246000
0.099350 -0.167538 0.401142
0.100784 -0.119899 -0.153838
0.066137 0.069703 -0.258773
0.123398 -0.037408 -0.416897
0.170546 0.082394 0.451790
-0.123373 -0.256085 0.242623
0.111809 0.127612 -0.094811
0.103842 -0.239072 -0.016993
0.133649 0.040408 -0.462785
-0.253734 -0.180176 0.147210
0.105009 0.203799 0.341698
0.012345 -0.127645 -0.369339
-0.238138 -0.075342 0.317035
-0.296880 -0.020546 0.281245
0.066988 0.233131 -0.053173
-0.224060 0.208124 0.113310
-0.035893 -0.005243 -0.500000
-0.133147 -0.028907 -0.437172
-0.256799 -0.072371 0.067755
0.241722 -0.178750 0.231068
0.000607 0.051158 -0.357892
0.015122 0.048046 -0.359097
