0.022933 0.374736 0.221039
-0.083226 -0.338014 0.040105
0.147313 0.454657 -0.027282
-0.085162 0.202848 0.221291
0.174824 0.353054 -0.051190
-0.011500 0.171282 0.222107
0.182323 0.102045 0.012775
0.174442 -0.138835 -0.024680
0.034130 -0.321443 0.110856
-0.348212 0.467015 0.006386
0.118050 0.434123 -0.135809
0.117907 0.352477 0.145736
-0.248295 0.257670 0.018969
-0.096830 0.228585 -0.178962
0.158769 0.492660 0.060255
0.019260 0.184385 -0.149322
-0.307765 0.419163 0.194065
-0.128796 0.405235 -0.184869
-0.030216 -0.324171 0.095618
-0.033732 0.502608 -0.169391
-0.111077 -0.289369 0.000364
0.108630 -0.321806 0.028042
0.168922 0.480246 -0.069949
0.139931 -0.057525 0.022616
0.061308 0.250051 -0.133979
0.201751 0.480715 0.109263
0.273255 0.522155 0.135251
-0.400635 0.459677 0.026808
-0.122605 -0.063098 -0.055144
0.186635 0.284860 0.049376
0.132842 -0.288273 -0.040374
-0.070212 0.009864 0.174046
-0.055154 -0.348429 -0.014938
0.015745 -0.111273 0.158271
0.183277 0.326057 -0.022898
0.054903 0.479303 0.363421
-0.039337 -0.364639 0.020364
0.151134 -0.120548 0.076548
-0.168602 -0.059843 -0.020999
-0.199339 0.173658 0.122955
0.044169 0.488288 0.245458
-0.242771 0.393975 0.000380
-0.222534 0.208520 0.096806
0.025762 -0.257290 -0.131270
-0.161942 0.095695 0.068242
0.002949 0.066223 0.198144
0.136118 0.039412 -0.048831
-0.262436 0.466790 0.115433
-0.287010 0.479307 -0.226893
-0.037966 0.132053 0.176703
-0.065944 -0.329755 0.067163
0.284531 0.528882 0.070893
0.166456 0.404840 -0.070722
-0.004234 0.160084 0.219169
-0.081825 0.464290 0.368633
-0.040012 0.449712 -0.167471
0.151412 0.395932 0.079541
-0.171970 0.208791 -0.129560
0.172428 0.319496 0.113015
-0.194796 0.261053 -0.054030
-0.162087 -0.067940 0.041362
0.153447 0.300545 0.033670
-0.046343 -0.492036 0.052604
-0.226807 0.396687 0.125850
-0.154637 0.335087 -0.164239
-0.173590 0.329106 0.215097
0.022470 0.273932 0.238231
0.064430 -0.429693 -0.171983
-0.393749 0.465974 -0.059207
-0.008232 -0.181550 0.104313
-0.114008 -0.133409 -0.028932
-0.145265 -0.076568 0.077539
-0.213850 0.300899 -0.104542
0.125542 0.502967 -0.244361
0.153379 0.237814 0.135708
-0.172947 0.196287 0.108899
-0.004710 0.526289 -0.257773
-0.009543 0.436685 0.359999
-0.237086 0.438585 -0.047486
-0.068781 -0.153233 0.126830
-0.229772 0.457980 -0.161264
-0.046202 -0.439962 -0.044312
0.034002 0.364988 -0.185985
0.013052 0.438323 0.368957
-0.159805 0.422013 0.372668
0.002361 -0.020103 0.179089
0.018328 0.257174 -0.187468
-0.179647 0.338131 0.165234
0.168980 -0.270272 -0.046462
-0.221068 0.192755 0.088341
0.066718 0.417718 0.206734
-0.078967 -0.066696 0.104928
0.024129 0.467124 -0.192643
0.135208 -0.494537 0.049872
-0.162375 0.056850 -0.002967
0.132039 -0.466749 -0.084780
0.158142 -0.181272 -0.082827
-0.258455 0.453121 0.011091
-0.076911 0.281212 -0.153258
-0.076640 -0.141904 -0.144467
-0.104570 0.415015 -0.157158
-0.050253 0.272118 -0.192466
0.073275 -0.274160 -0.158091
-0.112331 0.015149 -0.097285
0.094858 -0.381069 0.042605
-0.091859 -0.369746 -0.045734
0.154515 -0.397971 0.041635
0.002893 -0.088043 -0.139867
-0.047369 -0.137039 0.102475
-0.070944 0.369649 -0.196402
-0.136435 0.222144 0.161015
-0.051453 0.392501 0.236834
-0.084190 -0.147523 -0.089241
0.009140 0.488156 -0.216288
-0.295288 0.461231 0.139424
0.122415 -0.317378 0.001358
0.150123 0.520054 -0.251111
-0.125656 -0.213198 -0.057712
0.078759 -0.069396 0.150624
0.048405 -0.454966 0.097136
0.095841 -0.071577 0.096990
0.055317 0.439068 -0.139523
0.052692 0.186662 -0.175429
-0.169628 0.425367 -0.167768
-0.025132 0.163433 0.220674
-0.158176 0.059468 0.126614
-0.115680 -0.088275 0.048536
0.157583 -0.308687 -0.082808
0.117251 0.356237 -0.084465
-0.177559 0.309064 0.155616
-0.184302 0.000378 -0.006970
-0.096815 -0.315425 -0.074663
0.033228 0.329432 0.208324
-0.208956 0.337304 -0.059085
-0.110666 -0.104382 0.111253
-0.091563 0.352489 0.221459
0.139923 -0.030109 -0.111871
-0.316674 0.420670 0.165454
-0.325870 0.472341 -0.027925
-0.102429 0.482094 -0.284106
0.011680 -0.246771 -0.130929
0.132485 -0.278218 -0.120321
0.067903 -0.451742 0.052098
0.117655 -0.366909 0.018143
-0.204581 0.304770 0.113632
-0.005004 -0.467168 0.085121
0.177249 0.449511 -0.046719
0.013214 -0.032679 0.175754
-0.212909 0.161813 -0.050121
-0.022739 0.273533 -0.158441
0.033103 -0.073050 0.164617
0.064988 -0.363972 -0.157867
-0.256504 0.451399 0.302046
-0.368235 0.471548 -0.071247
-0.086873 0.120484 -0.133510
0.112684 0.449415 -0.140827
-0.114535 -0.099907 -0.054826
-0.055489 0.247412 0.202288
0.127999 0.003946 0.127874
-0.149679 -0.134070 0.014976
0.159676 -0.222558 -0.079134
-0.070142 0.256133 0.201868
-0.146967 -0.045977 -0.092522
0.038747 -0.365484 -0.160585
-0.237144 0.266689 -0.048107
0.153729 0.081621 0.107773
-0.259356 0.370408 -0.050810
0.082268 -0.198158 -0.116939
0.002001 -0.257070 -0.164066
-0.177437 -0.001243 -0.045524
-0.125327 0.217780 -0.165236
0.171896 0.448542 -0.059694
0.165366 0.008011 -0.068995
0.094649 0.481111 0.195122
-0.073438 -0.411938 0.035277
0.166378 -0.489036 0.031391
0.070337 -0.256401 -0.122351
-0.111339 0.032104 0.113125
-0.060009 0.443152 0.248174
-0.036800 0.249797 0.240222
-0.106171 0.142760 -0.165720
-0.068591 -0.459833 0.030746
0.073788 0.449362 0.315744
-0.055066 0.171583 -0.185073
0.098332 -0.181732 -0.148087
-0.271793 0.420150 0.227200
0.073516 -0.081921 -0.123283
0.146438 0.492582 0.116731
0.044691 -0.286692 -0.163853
0.028827 0.056359 -0.178862
-0.045710 0.093261 -0.145443
-0.044343 0.435415 0.331606
-0.176594 0.332397 -0.101917
0.142794 0.048053 0.035094
0.078320 0.483507 0.343523
0.248005 0.491391 0.042400
0.277367 0.491907 0.072813
-0.222095 0.334618 0.092476
-0.376806 0.466646 -0.024792
-0.175035 0.114878 -0.012738
-0.023954 -0.254280 -0.119389
-0.130359 0.347516 0.205307
-0.098266 0.029350 0.123432
-0.230438 0.357699 -0.016608
-0.183889 0.092603 -0.080926
-0.011670 -0.175299 0.141734
-0.112976 0.077242 0.172959
-0.257986 0.307901 -0.004420
-0.225165 0.417891 0.141519
-0.059463 -0.314991 -0.034132
-0.213947 0.463214 -0.202582
0.121990 0.487872 0.346859
-0.124398 0.427857 0.320315
-0.240858 0.387697 0.076654
-0.051414 -0.489745 -0.129770
-0.117045 -0.033260 -0.078021
-0.121765 0.056726 -0.096823
0.130813 0.158472 0.090684
0.099088 0.138402 -0.150242
0.075877 -0.153258 -0.121134
-0.128397 -0.144349 0.069294
0.157147 -0.419836 0.040151
-0.228314 0.392112 -0.044223
-0.039623 0.200790 -0.188990
0.287401 0.498071 0.153783
-0.115726 0.033643 -0.097926
-0.150913 0.014394 -0.015679
0.089558 0.483718 0.354998
-0.180125 0.053301 0.088054
0.251900 0.527272 -0.141758
0.266117 0.489182 0.205163
0.147941 -0.228004 -0.100705
0.125124 -0.216053 0.092344
-0.114421 -0.138171 -0.011348
0.157286 0.009802 -0.085762
-0.158485 0.294464 0.214040
-0.085254 0.522355 -0.311881
-0.109125 -0.157024 -0.023430
-0.204973 0.503616 -0.242170
0.152821 0.274929 0.026444
-0.093194 0.087571 -0.125783
-0.021636 0.237794 0.237338
-0.132626 -0.138054 -0.082244
-0.121497 -0.087484 0.033240
0.139752 0.516590 -0.258521
-0.067744 -0.507455 -0.051479
0.108166 0.454267 0.301264
-0.115066 0.410030 -0.190055
-0.055105 0.349522 -0.196733
0.073232 0.045487 0.134760
0.048236 0.444545 0.340138
-0.088042 -0.303102 0.050907
0.167307 0.390626 0.137770
-0.102964 -0.008323 -0.101714
-0.004618 0.021940 -0.145635
0.028848 -0.488078 -0.157312
0.171423 0.414953 0.133241
-0.097455 -0.334024 0.008058
-0.176131 0.491222 -0.293158
0.136186 0.501815 0.202089
-0.116093 0.467860 0.284539
0.129173 0.461941 0.237951
0.139422 -0.111434 -0.112459
0.169685 0.036864 0.065847
0.014921 -0.093940 0.126444
-0.233507 0.315170 0.142259
-0.054224 -0.204374 0.076152
-0.110380 0.434721 0.237785
0.055573 -0.281911 0.116875
0.005069 -0.110123 -0.138725
0.012487 -0.053834 0.135426
0.071273 -0.147675 -0.161592
-0.117473 0.164492 -0.121275
0.012271 0.149036 -0.184946
-0.236008 0.353685 0.045660
0.054091 0.356541 0.203362
0.137409 -0.091623 0.025663
0.290559 0.509934 -0.054493
-0.092234 0.033384 0.171091
-0.199264 0.455589 0.324265
-0.259909 0.328997 -0.019765
-0.371030 0.427603 0.017271
-0.157253 0.112540 0.089492
-0.076929 -0.092682 -0.108653
-0.011053 0.216519 0.196261
0.132533 -0.127137 0.100218
-0.038127 0.003489 -0.140000
-0.174957 0.166199 -0.051708
-0.079142 0.119750 0.162621
0.170657 -0.184144 0.014584
-0.183694 0.390162 0.228403
0.003870 0.387137 0.265828
-0.274934 0.467588 0.090630
-0.232517 0.216066 0.071227
-0.207971 0.227100 -0.089841
0.031277 -0.038863 -0.139747
-0.241253 0.261711 0.086124
0.144970 0.535390 -0.178058
0.121014 0.233912 0.175142
0.108875 -0.354386 -0.139905
-0.095672 -0.199550 -0.043473
0.009954 0.089805 -0.147808
0.043460 0.142476 -0.177675
-0.315000 0.416778 0.212865
-0.200365 0.226427 0.148174
0.186131 0.340790 0.069816
0.011943 -0.242149 0.128496
-0.187719 0.015077 0.019633
0.138439 0.185924 -0.045634
0.158934 -0.228372 0.042521
-0.094297 -0.152728 -0.128693
-0.129572 0.196309 -0.159969
-0.050090 0.075915 -0.142945
-0.214163 0.264378 0.022891
-0.131177 -0.081124 0.097339
0.087457 -0.456573 0.091013
-0.172631 0.502705 -0.191435
0.248854 0.540568 -0.143132
0.167789 0.490750 -0.084321
-0.171134 -0.008811 -0.059596
0.059764 0.483525 -0.137314
-0.044205 -0.455742 -0.049004
-0.250269 0.415215 0.311379
-0.194642 0.203739 -0.018424
-0.023745 0.017894 -0.143955
-0.076473 0.471258 0.294125
-0.052194 0.432105 0.360420
-0.078222 0.041281 0.140159
-0.000017 0.488939 -0.236769
0.108205 -0.245540 -0.095343
0.049267 0.395705 0.213297
-0.170827 0.011847 -0.071563
-0.235730 0.395688 -0.027575
-0.337476 0.448874 0.230988
-0.205921 0.237825 0.048701
0.085896 -0.143393 0.092065
-0.288330 0.419253 0.016217
-0.137787 0.162802 0.184586
0.053018 0.263104 -0.176829
0.121520 -0.077953 0.065396
0.089470 -0.039216 -0.113035
-0.187645 0.314497 0.198597
0.145455 0.042947 -0.004494
-0.242291 0.419867 0.188817
0.103515 -0.480962 -0.147549
0.118024 0.425830 0.211609
0.162658 -0.377882 -0.068331
-0.063211 0.350659 0.262168
-0.060305 -0.496278 -0.117645
0.149015 -0.133283 -0.099229
-0.078526 0.029967 -0.165504
-0.216565 0.403005 -0.070463
0.028152 0.233473 -0.148177
-0.191241 0.050552 -0.038199
0.111517 -0.289843 -0.083729
0.117506 0.287519 0.135005
-0.057565 0.021521 0.181436
-0.023885 0.445507 -0.165948
0.115709 0.221622 0.126056
-0.006570 -0.285638 0.114967
-0.177144 0.293066 0.199777
0.028208 -0.092686 -0.173509
0.151378 0.528070 -0.084845
-0.192058 0.176157 0.009255
-0.108210 0.398309 0.228739
0.077091 0.453344 0.273464
-0.039640 0.474243 0.305058
-0.167204 0.239407 -0.089940
-0.201335 0.372092 0.154359
-0.162940 0.200760 -0.084682
-0.184816 0.348697 0.213289
0.041811 0.025663 -0.138803
-0.173472 0.127069 -0.032123
0.019271 -0.442466 0.095588
-0.168773 0.425851 0.288616
-0.134630 0.515690 -0.295515
-0.346874 0.460181 -0.158064
-0.214532 0.274159 -0.095483
0.020411 0.511373 -0.307297
-0.245339 0.434067 -0.024688
0.018977 0.052518 -0.145090
0.029202 0.377411 -0.187865
-0.091958 0.214230 -0.179216
0.126877 -0.117798 -0.068024
0.119683 -0.385615 0.016484
-0.070508 -0.212792 -0.088705
0.017777 -0.195853 -0.169269
-0.161761 0.119461 0.148039
0.110980 -0.155811 0.115038
-0.140802 0.083411 -0.080205
-0.191982 0.196007 -0.103536
0.149077 0.150518 -0.099526
0.148579 0.223364 0.140576
0.044915 0.312689 0.199926
-0.031747 -0.466068 -0.148586
0.068179 -0.409434 0.093340
-0.024600 0.527752 -0.299488
-0.069071 -0.083201 0.147911
0.145970 -0.375189 -0.103442
-0.338697 0.476504 -0.092324
-0.394818 0.437149 0.128229
0.014179 -0.332539 -0.119081
0.150107 0.532969 -0.143490
0.011853 -0.492944 0.088048
0.007790 0.483356 -0.203610
-0.307026 0.441413 -0.064158
0.183181 0.182969 0.042153
-0.009420 0.330214 0.220338
0.224251 0.495906 -0.039664
0.049532 -0.464961 -0.133106
0.151917 0.395526 0.165539
-0.121749 -0.158564 0.072768
-0.130341 -0.027356 0.121700
0.125091 0.375123 0.139061
0.092825 0.211585 -0.111200
-0.004829 -0.273449 -0.161456
-0.175798 -0.035377 0.002989
-0.015017 0.085004 0.167220
0.049805 -0.112460 -0.132933
-0.016641 0.124870 -0.185780
0.077487 0.309257 0.179509
0.147754 0.413946 0.174836
-0.036683 -0.349848 -0.139624
-0.175048 0.114994 0.039514
0.044682 -0.396329 0.059083
0.082057 0.490180 -0.174649
-0.083859 -0.118227 -0.143133
0.074027 0.487925 0.286731
-0.181996 0.149835 0.051884
0.176692 -0.079172 -0.012892
-0.111329 0.007587 -0.143704
-0.087062 0.431448 0.324816
0.143731 0.385250 -0.107138
0.118235 -0.067363 -0.134335
0.185184 0.194885 0.020444
-0.083689 -0.434438 -0.077662
0.127466 -0.432624 -0.083537
-0.337182 0.425824 0.079988
-0.132660 0.310222 0.233214
0.017529 -0.065616 -0.140663
-0.204680 0.375175 -0.132866
0.043015 0.497560 -0.283790
0.013102 -0.466628 -0.125466
0.024721 0.074255 0.160556
-0.112507 0.178658 -0.126766
-0.111924 0.329379 0.246794
0.101954 0.529156 -0.158815
0.112544 0.232434 -0.090482
-0.010133 0.380599 0.267068
0.221291 0.541902 -0.159209
-0.177060 0.276187 0.141988
0.030151 -0.339873 0.063844
0.238912 0.530572 -0.005388
-0.139688 0.457409 0.376989
0.035048 -0.134781 0.151272
-0.026565 0.205505 -0.189900
0.083637 0.490103 0.273296
-0.030607 0.231500 0.200393
-0.058693 -0.482340 0.040103
0.171408 -0.408183 -0.083648
-0.094342 0.107404 0.151557
0.117783 -0.136116 -0.134526
0.061194 -0.397937 0.056944
0.076329 -0.113828 0.103666
0.066306 0.128471 -0.168729
0.052309 -0.483501 -0.134689
0.166164 -0.119822 -0.064593
-0.139186 0.171051 0.139937
0.128058 0.538562 -0.235982
0.099112 0.084460 -0.149871
-0.098520 0.038741 -0.114552
-0.048959 -0.353373 0.005299
-0.197153 0.112187 -0.062192
0.111173 -0.471539 -0.111617
-0.239944 0.460964 -0.051662
0.126738 0.278650 0.119441
0.165651 0.500595 -0.166978
0.143263 0.164425 -0.030550
-0.098642 0.469080 0.291986
0.097835 0.143573 -0.106397
-0.226710 0.322871 0.004287
0.164704 -0.048623 -0.069784
0.235619 0.534461 -0.054765
0.073226 0.056136 -0.164432
-0.135987 0.080411 0.157531
0.107290 0.380814 0.164107
0.083726 -0.210186 0.121643
-0.202331 0.456559 0.309168
-0.205989 0.282802 0.166685
-0.154927 0.423757 0.330190
-0.099166 -0.199194 -0.113060
0.003365 -0.505085 0.083618
-0.085117 -0.061550 0.145953
-0.309207 0.425176 0.282006
0.124132 -0.009869 -0.129106
-0.044479 -0.424347 -0.009677
-0.148103 0.050343 -0.118797
0.093362 -0.467599 0.041867
0.049699 0.151416 0.205301
-0.186753 0.161022 0.042033
-0.096283 0.235742 -0.142434
-0.189826 0.185258 0.059636
-0.019830 -0.495570 -0.130454
-0.020960 -0.166328 0.105003
0.126649 0.464298 -0.070756
0.172586 -0.128107 0.018964
-0.033756 -0.029780 -0.138335
-0.004517 -0.209971 0.097917
-0.151679 -0.116191 -0.042987
0.127490 0.470663 -0.127583
-0.175787 0.048159 -0.077802
0.111585 0.152358 -0.140827
0.260297 0.503295 -0.080995
-0.270885 0.471380 0.051499
0.027569 -0.213668 -0.133407
-0.129532 -0.019639 0.063534
-0.117996 0.477112 -0.245401
0.029762 0.242514 0.192719
-0.263639 0.493123 -0.192747
-0.031963 -0.508378 0.003660
0.071886 -0.410587 0.053349
-0.234350 0.487458 -0.090431
0.150901 0.523591 -0.033278
0.173178 0.035496 -0.047482
0.175585 -0.007016 0.034834
-0.190379 0.502658 -0.212908
-0.061868 -0.226377 0.107748
0.006208 0.496001 -0.304163
0.165051 -0.425273 0.027733
-0.241520 0.235685 0.000139
-0.103995 -0.171434 -0.035317
0.260896 0.542442 -0.116357
0.044962 0.484464 -0.189667
0.164685 -0.291970 0.014595
0.106548 0.215051 -0.097557
-0.322837 0.426037 0.095306
-0.360616 0.454929 0.131759
0.062081 -0.302711 0.074026
-0.120105 -0.121350 -0.107848
0.158199 0.504173 -0.217900
-0.030669 -0.125281 -0.167181
0.030579 0.418132 -0.188359
-0.013474 0.087090 -0.183813
-0.193776 0.235257 0.091246
-0.219729 0.149124 -0.009974
0.149812 0.464817 0.100839
-0.075726 0.443104 -0.200727
-0.121698 -0.238187 0.016230
0.130979 0.499793 -0.200650
-0.356246 0.422326 0.097077
0.191293 0.512249 0.148939
-0.201710 0.389073 -0.087139
-0.086356 -0.171074 0.054662
0.139430 0.457680 -0.112793
0.149661 0.395623 -0.017409
-0.068773 -0.212225 0.107667
0.003408 0.159533 -0.151353
-0.163830 0.283552 -0.104180
0.221120 0.483753 0.098003
0.003748 0.252677 -0.190066
-0.238235 0.451719 0.320984
-0.309431 0.441469 0.284901
-0.367809 0.462708 0.032237
-0.273105 0.421219 0.213119
-0.256321 0.458096 -0.195551
0.006956 0.043184 0.192781
-0.280456 0.392772 0.013011
-0.318636 0.418964 0.182892
0.135319 -0.023861 0.046460
-0.101897 0.450066 -0.197522
-0.113602 0.420796 0.233075
0.082822 -0.092851 -0.117523
0.180763 -0.438601 -0.064478
0.042195 0.104945 0.161281
0.077678 0.338643 -0.165716
-0.198897 0.496393 -0.283466
-0.074839 0.463835 -0.166967
0.079094 -0.105687 -0.119780
-0.227925 0.446221 0.152134
-0.219446 0.445992 -0.079965
0.152173 -0.236215 0.054378
0.145280 0.359355 -0.030676
0.182848 -0.438024 -0.047545
-0.182740 0.456962 0.328775
0.154800 -0.310223 0.036318
0.032620 -0.486475 0.093253
0.146807 0.236728 -0.102873
-0.013025 -0.312233 -0.107303
0.026346 -0.108146 -0.173081
0.124151 0.041068 0.138315
0.051200 0.079120 0.152642
0.099357 -0.217332 0.111899
0.052102 -0.199740 0.097901
0.127998 0.453755 0.342054
-0.241749 0.277370 -0.041912
0.092528 0.105815 0.175290
-0.080860 -0.488657 -0.009823
-0.377952 0.425263 0.035940
-0.024283 -0.279099 0.111194
0.131975 -0.357488 0.060757
-0.102350 0.339062 0.214738
0.006198 0.221666 -0.153210
-0.115295 -0.119477 -0.038638
-0.158349 -0.063331 -0.061160
-0.265735 0.353472 -0.018931
-0.210650 0.257592 -0.095908
0.085119 -0.124397 0.096035
-0.076328 -0.509227 -0.041498
0.057450 0.253152 0.182304
-0.049609 -0.199854 -0.111400
0.111350 -0.022408 -0.140193
-0.135098 -0.062843 0.100611
0.103434 -0.087693 -0.100556
0.131490 0.208664 -0.121859
0.016402 -0.480027 0.090801
-0.078429 -0.181054 0.060874
-0.278597 0.476363 -0.016112
-0.353642 0.473686 -0.078038
0.128443 -0.017783 0.123631
0.245158 0.496246 -0.017682
0.177869 0.000582 -0.021580
0.121641 -0.234578 0.037607
-0.062596 -0.225583 -0.094797
-0.034415 0.219625 -0.155535
-0.047911 0.469861 0.345834
0.183805 0.259238 -0.015161
-0.182553 0.234257 0.113440
-0.201067 0.458075 0.293073
-0.081601 -0.270680 -0.020605
-0.163244 0.403031 -0.168415
-0.202377 0.190228 -0.085985
0.045731 -0.045992 0.167386
-0.202539 0.347409 0.140807
0.082771 0.287235 0.214558
-0.012204 -0.477851 -0.161190
-0.075060 -0.195224 0.108880
-0.171241 0.302074 0.207550
-0.322410 0.433305 0.011185
-0.111924 -0.096656 -0.123415
-0.010433 -0.486272 0.028262
0.264940 0.537056 -0.048607
0.132013 0.006638 0.060527
0.069375 0.524755 -0.147988
0.034427 0.416752 0.262919
0.279093 0.502576 -0.049302
0.175070 0.290104 -0.049283
0.119269 0.091396 0.098462
0.119866 0.531582 -0.164846
-0.232312 0.408679 0.121971
-0.108234 0.017546 0.110493
0.030460 0.291486 0.202013
0.071915 0.145385 0.153872
0.283997 0.510614 0.160717
-0.129034 -0.036806 -0.053769
0.067952 0.515878 -0.132175
0.036145 0.413657 0.223222
0.112825 -0.349960 -0.085513
-0.024384 0.472739 0.341506
0.051024 -0.387933 -0.162677
-0.033320 0.068504 0.197982
-0.163128 0.152364 -0.068801
0.247761 0.483450 0.236489
-0.208132 0.287101 0.093313
-0.222071 0.265692 0.134611
0.137959 -0.049844 0.107316
-0.171860 0.385580 0.190463
0.096705 0.028432 0.158421
-0.111340 0.314603 -0.144600
0.113060 0.528633 -0.138947
-0.001535 0.441868 0.287783
-0.020411 -0.512785 0.069326
0.168672 -0.161565 -0.055166
-0.120488 0.079299 -0.148601
-0.244703 0.388497 0.047307
-0.071480 -0.303434 -0.044200
0.145625 0.108424 -0.016002
0.122788 0.426985 -0.076673
0.119689 -0.429299 0.019339
-0.086490 -0.264602 -0.111293
0.083682 -0.319061 0.100858
-0.091646 -0.305619 -0.090383
-0.007689 -0.385553 0.046802
-0.384536 0.430221 0.159220
-0.009277 0.472322 -0.201572
0.003255 0.452999 -0.161104
0.053730 -0.062001 0.161891
-0.038271 0.168116 0.221194
-0.038614 -0.376392 0.073959
0.157663 0.001845 0.086721
-0.126146 0.187960 0.157066
0.068023 0.535325 -0.272764
0.173455 0.528959 -0.067813
-0.154152 0.076163 0.073119
-0.061884 -0.292221 0.085224
-0.115563 -0.118733 0.023198
-0.092766 0.248642 0.193327
0.098122 0.496080 -0.198173
0.189648 0.507866 -0.212594
0.161017 -0.419148 -0.108190
-0.192768 0.133308 0.111802
0.021639 -0.142801 -0.136971
-0.333626 0.443511 -0.121601
0.074989 0.351420 -0.167390
-0.004319 -0.156048 0.111324
0.231018 0.516007 0.154451
0.207398 0.485603 0.287537
0.189398 0.335331 0.022720
0.052314 -0.360053 -0.123177
-0.276280 0.378334 0.006327
-0.015574 0.196124 -0.189345
-0.130085 0.361621 0.249046
0.059716 0.310190 0.191596
-0.195012 0.068666 -0.039630
-0.050977 0.099813 0.166380
0.011480 -0.302699 -0.116635
0.174160 0.282739 0.101657
-0.081922 0.512794 -0.196398
-0.026213 -0.365975 -0.097513
0.124009 0.047147 -0.073980
0.017634 -0.216988 -0.168148
-0.204817 0.085801 -0.007998
-0.033018 -0.323276 -0.091580
0.091234 0.131271 -0.112320
0.092388 0.007374 -0.110916
-0.150298 0.457233 0.365877
0.082917 0.414662 0.193974
0.097606 -0.498738 0.052147
-0.078761 0.252157 0.235704
0.184005 0.309622 -0.018409
0.143647 -0.023826 0.000513
0.144142 0.070485 0.120176
-0.022623 -0.023804 -0.176516
0.077242 -0.502421 0.069773
-0.016156 -0.268870 0.078567
-0.013027 0.488840 -0.165871
-0.065513 -0.427421 0.043453
-0.090090 0.389641 0.267975
0.147740 -0.478415 -0.122349
-0.086353 -0.386206 -0.055684
0.143229 -0.002566 0.108752
-0.094475 0.513434 -0.219424
0.142059 -0.475140 -0.022850
-0.116585 -0.004935 0.142980
0.121348 -0.208844 -0.077621
0.145094 -0.332288 -0.104761
0.294172 0.502005 -0.015811
-0.000644 0.044003 0.157732
-0.213375 0.431274 -0.137050
-0.171101 0.109287 -0.025789
0.152469 0.302402 0.047697
-0.070567 -0.379763 0.038626
0.159014 0.227849 0.124457
-0.213573 0.275595 -0.007767
-0.125674 0.147963 0.187651
0.255384 0.537867 -0.069907
0.067024 -0.485565 -0.139223
0.137314 0.383787 -0.050977
0.142448 0.247437 0.153255
-0.073205 -0.250846 0.090584
0.074696 -0.179563 0.092412
0.011541 0.273801 -0.153811
0.112611 -0.305563 0.087012
-0.062311 -0.431605 -0.118962
-0.115246 0.510510 -0.211142
0.088217 -0.281093 0.065567
0.032317 -0.198376 -0.133736
-0.024619 -0.231531 0.085621
0.132309 0.294839 -0.060351
-0.114942 -0.274399 0.000900
-0.073956 -0.506073 0.005208
0.015705 0.530949 -0.286716
0.127713 0.318039 -0.068710
-0.083694 0.000364 -0.119094
-0.061846 0.305134 0.215445
0.058652 0.250045 -0.174181
0.125341 -0.183798 0.039872
-0.206413 0.241358 -0.002674
0.144701 0.024271 -0.008748
-0.040208 0.241692 0.202415
0.009412 -0.390155 -0.157029
0.190259 0.502871 0.256879
0.151999 0.270022 0.007768
-0.055602 0.246595 -0.190206
0.114137 0.191852 -0.088402
0.021830 0.285494 -0.187551
0.137309 0.445660 -0.051476
0.036194 0.358347 0.212597
-0.182000 -0.006845 0.020546
0.140823 0.072778 -0.110731
0.021592 0.452550 0.236714
-0.013572 0.225536 -0.190684
-0.058970 0.450500 0.397026
-0.063792 -0.164460 -0.106417
-0.157494 0.503877 -0.186305
-0.033620 -0.489682 -0.078032
0.178516 -0.397684 -0.025900
-0.061701 0.194281 -0.149833
-0.262470 0.419427 0.247186
-0.229535 0.416233 0.325243
-0.169461 0.441794 0.211534
-0.326379 0.423982 0.261892
-0.158007 -0.037625 -0.075639
-0.112582 -0.019845 -0.138032
-0.070579 0.517165 -0.233225
0.145007 0.100972 0.037072
0.005935 -0.412117 0.050071
0.114056 -0.161405 -0.088319
-0.149326 0.367014 0.241892
-0.221773 0.231265 0.114534
-0.165624 0.464531 0.261864
-0.181970 0.158620 -0.027422
-0.060419 -0.466161 0.041492
0.149898 0.234532 -0.004057
0.006872 -0.152177 -0.171337
-0.352241 0.444196 -0.137466
0.082023 -0.413613 0.094971
-0.320601 0.469685 0.009550
0.070275 0.424652 0.247782
-0.133642 -0.010335 -0.120218
-0.272679 0.358262 0.018024
0.181909 0.111843 0.026941
0.128844 0.227469 0.165997
-0.052754 -0.235069 0.066296
-0.215161 0.473873 -0.274125
0.135076 0.301920 0.171860
-0.011489 -0.351372 -0.152315
-0.106257 -0.106506 0.056304
-0.198714 0.326422 0.192785
0.165314 0.504258 0.209770
0.174103 -0.089808 -0.035297
0.009061 0.436396 -0.195069
-0.013234 -0.028009 -0.142236
0.103785 0.268960 0.148664
-0.088069 -0.452457 -0.030290
-0.055549 -0.350136 0.069442
0.157353 0.453313 0.019503
-0.176326 0.010674 -0.057420
-0.163855 -0.079480 0.015366
0.189995 0.426005 0.070159
0.106385 -0.209244 -0.097306
0.181444 0.098357 0.026325
0.169165 0.278339 0.113094
0.175732 0.066953 0.051869
-0.239233 0.419600 -0.032564
0.079612 -0.263261 0.074154
-0.017603 0.290775 -0.158901
-0.079389 0.019702 0.173090
0.036689 0.532522 -0.279002
-0.079168 -0.233333 0.091781
0.158107 0.452643 -0.086079
0.186673 0.374383 0.075813
0.094218 0.431253 0.233461
-0.165487 0.028883 0.101145
-0.104293 -0.002000 0.152996
0.162014 -0.323402 -0.071365
-0.180821 0.210493 0.164814
0.045239 -0.302772 0.078243
-0.208276 0.317618 0.114131
0.163193 0.351496 0.138746
0.136264 0.013311 -0.116258
0.014086 0.238122 -0.152140
0.171814 -0.122350 -0.044399
-0.161153 0.366596 0.235382
-0.065810 0.091342 0.159827
-0.044060 0.471775 -0.205816
-0.066435 0.190112 0.185822
0.033883 -0.312210 0.067727
-0.341350 0.458585 0.113083
-0.030506 0.525432 -0.279797
-0.221459 0.297745 0.152637
0.154960 0.405209 0.007832
0.261165 0.527552 0.057397
0.244609 0.540846 -0.117971
0.080660 0.352002 0.227725
-0.154475 0.101154 0.148300
-0.019591 -0.352213 -0.103447
0.151891 0.311764 0.150938
-0.240441 0.423433 0.227864
0.111556 0.193072 -0.140979
0.114086 0.496754 0.233609
0.101413 0.079510 0.164404
-0.103074 0.428883 0.389209
0.163073 -0.366379 0.004437
0.176457 0.299127 0.098220
0.167764 -0.292043 0.001716
-0.071612 0.384441 0.269386
0.147054 0.524285 -0.046129
-0.155484 -0.082437 0.049997
0.143017 -0.306713 -0.107695
0.086956 0.302278 0.214652
-0.031031 0.291181 0.213881
0.014153 0.354327 -0.155423
0.046169 0.210456 0.218125
0.112676 -0.167973 -0.138478
-0.076988 -0.278654 0.002083
0.155670 0.034942 -0.088786
-0.164550 0.074419 0.037937
0.185737 -0.462585 -0.039664
-0.138243 0.035014 0.079489
0.120130 0.356161 -0.133662
-0.095615 -0.090543 0.079832
-0.008016 0.235357 0.235801
-0.108527 0.479652 -0.263243
0.060319 0.412797 -0.136332
-0.137006 0.303049 -0.129300
0.138934 0.503738 0.183096
0.095061 0.011186 -0.151918
-0.212534 0.305829 0.096085
0.124695 -0.481532 -0.114631
-0.166379 0.079959 -0.015475
-0.060547 0.268187 0.242816
-0.398771 0.462641 -0.039438
0.155644 0.476544 0.003919
0.111070 -0.213549 0.104638
-0.194808 0.200794 0.143648
-0.024815 -0.281463 -0.154347
-0.046597 0.484744 -0.245709
-0.052625 -0.380797 -0.037565
-0.024196 -0.113415 -0.169726
0.087212 -0.012963 0.114478
0.034442 -0.157767 -0.170189
-0.210749 0.346532 -0.120323
0.032067 -0.179729 -0.169517
0.189965 0.354104 0.023837
-0.067507 -0.158762 0.081469
-0.241722 0.231312 0.031993
-0.106679 0.141917 0.155065
-0.175907 0.233803 -0.130995
0.190482 0.458606 0.081791
-0.235521 0.485988 -0.074769
0.041291 0.244862 -0.180768
0.008362 0.439298 0.351775
0.129092 -0.065158 -0.124144
-0.147382 0.258391 -0.157759
0.134803 0.320522 0.112020
-0.027991 -0.423731 0.079274
-0.212250 0.434385 0.356639
0.135381 -0.431202 -0.064539
-0.120615 0.233612 -0.169551
0.166004 -0.116433 0.046111
-0.025938 0.452580 -0.201893
0.141586 0.147504 0.137004
-0.031958 -0.411111 -0.147904
-0.036297 -0.436397 0.006390
0.217568 0.528701 -0.010073
-0.142933 -0.133999 -0.059755
0.017410 0.476197 0.353084
-0.165439 0.230780 0.187104
-0.014374 -0.198683 0.135340
-0.000261 -0.401025 -0.116748
0.027849 0.196090 0.221067
0.146423 0.090847 -0.007281
-0.335012 0.416769 0.246025
-0.059126 -0.447243 -0.122269
0.069481 0.445415 0.356368
-0.163189 0.313316 -0.155571
0.056003 0.174173 -0.135827
-0.119717 -0.216113 -0.072839
0.180934 0.289109 -0.030263
-0.019184 -0.273735 -0.119415
0.111922 -0.062546 -0.091125
-0.215721 0.331241 0.106800
-0.059369 -0.014362 0.171293
0.112085 -0.378615 0.074256
-0.167769 0.501670 -0.173349
0.179194 0.010811 0.013170
-0.098782 -0.052634 0.139956
-0.325466 0.440596 -0.077524
0.113754 -0.049236 0.131795
0.012273 0.477353 0.333248
-0.116371 -0.274466 -0.013400
0.112821 0.308057 -0.090164
0.190887 0.501442 0.274296
-0.197953 0.341160 0.199153
0.080927 0.169661 -0.120660
-0.209109 0.261464 -0.013366
0.038261 -0.269651 -0.165139
-0.084627 -0.349815 -0.085165
0.274712 0.536210 -0.026637
0.182093 0.248241 -0.022930
-0.186720 0.454275 0.355131
-0.329314 0.421281 0.142664
-0.345156 0.416059 0.183820
-0.174946 0.001204 0.062970
-0.114778 0.091937 -0.110885
0.149787 0.256990 0.144623
0.274673 0.490300 0.088191
-0.128771 0.114853 -0.102639
0.012315 0.294073 0.208300
-0.222743 0.355164 -0.038052
0.057496 -0.474617 0.052096
-0.097906 0.165270 -0.172088
0.105858 -0.224551 -0.097848
0.163889 -0.017452 -0.072051
0.164136 0.157549 0.101969
-0.109144 0.391549 0.264128
-0.042467 -0.237449 -0.110480
-0.236880 0.367753 0.069782
-0.231513 0.347775 -0.002154
-0.081816 0.265573 0.201443
-0.292103 0.426130 0.090254
0.088544 -0.480537 -0.171080
-0.137208 -0.075682 -0.097787
0.013661 -0.352696 -0.120146
-0.197870 0.418076 0.230423
-0.139337 -0.182506 -0.010395
0.127277 -0.388185 0.002324
-0.002594 0.285218 -0.156956
0.068186 -0.337460 -0.116714
0.042937 -0.332394 -0.121477
-0.072775 -0.343105 0.053350
-0.225779 0.371416 -0.108809
-0.071521 -0.000101 -0.126435
0.148365 0.156854 -0.002824
0.033366 -0.427634 -0.172260
0.142448 0.105721 0.050127
0.303022 0.505833 0.012778
0.256934 0.499304 -0.038690
0.138668 0.005201 0.041950
-0.137915 0.358452 -0.176007
0.077896 0.492935 0.233185
0.139670 -0.462474 -0.142526
-0.192975 0.183504 -0.098261
-0.092362 0.056733 -0.162158
-0.026738 0.335504 0.259177
0.226781 0.540895 -0.140665
0.142396 -0.443339 -0.136523
0.004677 0.199127 0.226466
0.187471 0.503934 0.241033
-0.082056 -0.411211 -0.005993
-0.360926 0.467326 -0.013012
-0.183282 0.459773 0.295363
0.104397 0.445443 0.229003
-0.152845 -0.082022 -0.064640
0.100238 -0.162508 0.121404
-0.179831 0.418196 -0.116421
-0.085868 -0.460584 -0.058659
0.128060 -0.177638 0.096139
-0.309341 0.439641 -0.046395
-0.211547 0.271533 0.154104
-0.189081 0.400510 -0.104296
-0.220456 0.455873 0.294670
-0.074797 -0.444604 0.023644
-0.196202 0.061866 0.046421
0.188254 0.346376 0.003633
-0.068551 0.498439 -0.169671
0.077642 -0.424925 -0.124172
0.095939 0.492518 0.260423
0.023880 -0.470694 -0.173817
-0.128721 0.450573 0.388600
0.180162 0.099239 -0.019543
-0.279973 0.453072 -0.166384
-0.382879 0.430669 -0.033143
0.122987 0.238601 0.118457
-0.137604 -0.043204 0.009687
0.103937 -0.342909 -0.094514
0.024434 0.026073 -0.143218
0.077332 0.005683 0.165487
-0.119392 0.429805 0.303831
-0.005325 0.283186 0.245764
-0.175324 0.346334 -0.106239
0.055307 0.444224 0.352648
0.106501 -0.106268 0.127306
-0.237713 0.500356 -0.244819
-0.282662 0.423961 0.307351
0.064241 -0.055292 -0.166137
0.170787 0.200110 0.094452
0.034186 -0.066523 -0.138241
0.155100 -0.484172 -0.046161
-0.340606 0.420911 0.132954
-0.214166 0.137199 0.057647
0.063032 -0.293292 -0.115737
-0.043211 -0.294864 0.052497
-0.105894 0.083512 -0.116538
-0.143832 -0.010593 0.027482
0.030476 0.130573 0.170322
0.007496 0.481244 0.282004
-0.251024 0.457361 -0.180421
-0.084199 -0.435249 0.003383
-0.032826 0.479052 -0.168290
0.162268 0.467087 0.219089
-0.116195 -0.035369 0.078031
-0.118632 -0.046498 0.125897
-0.076035 0.078074 0.152060
-0.147929 0.004526 0.026854
-0.107854 -0.161431 0.003154
-0.068907 0.169489 0.179812
0.075507 0.251751 0.212359
0.066609 0.448853 0.375684
-0.082045 -0.450894 0.003612
-0.141295 0.127542 -0.091987
-0.201151 0.072363 0.033108
-0.079403 0.096070 0.155761
0.041568 -0.024252 0.172874
0.139380 -0.122280 0.007764
-0.060353 -0.235978 -0.141054
0.112034 0.385546 -0.091223
-0.220097 0.493377 -0.141683
-0.128004 0.038376 0.096898
-0.353847 0.421024 0.115212
-0.068186 -0.104990 0.141906
-0.019423 0.030943 -0.145348
-0.403677 0.438259 0.079572
0.128955 0.256367 -0.124591
0.104362 0.506024 -0.100198
-0.158370 0.289856 0.167136
-0.181606 0.179353 0.150798
0.095366 -0.343616 0.090797
-0.056368 0.362408 0.265402
-0.027581 0.104255 0.206924
0.058316 -0.324507 -0.118185
0.095904 -0.144516 -0.149889
-0.107139 0.164269 0.202511
-0.158694 -0.076530 -0.051147
0.140143 0.081722 -0.038128
-0.158326 0.205655 0.133706
0.012857 -0.058880 -0.176190
0.068533 -0.442261 -0.172671
-0.222257 0.152296 0.014558
0.109345 -0.115475 -0.094107
-0.007462 0.102777 0.206771
0.106721 -0.396025 0.032750
-0.254932 0.458968 0.215844
-0.150516 0.474417 -0.254364
-0.132683 -0.125746 -0.087214
-0.188092 0.255023 0.115310
-0.100263 -0.182742 0.014192
0.064102 0.395960 -0.133777
0.186758 0.269697 0.005819
0.210083 0.494893 -0.045439
0.115710 0.458198 0.229539
0.178292 -0.449834 -0.080008
0.184484 0.180933 0.027512
-0.134390 0.418643 0.224355
-0.171935 -0.037803 -0.033332
0.139763 0.504587 -0.245596
0.124135 0.126637 -0.073968
0.051945 -0.282406 -0.127600
-0.077256 0.481874 -0.250320
0.152851 -0.255404 0.049791
-0.147787 0.432282 -0.179922
0.135433 0.460317 0.264632
0.154834 0.353526 0.153680
-0.066068 0.367426 0.229940
-0.031836 -0.233214 -0.117879
-0.268825 0.341540 0.021687
0.098032 -0.433069 -0.163624
-0.042760 -0.343368 0.082106
0.192736 0.469949 0.223548
-0.054350 0.156069 -0.184078
-0.172276 0.498291 -0.139591
-0.086530 -0.466758 -0.031353
0.045505 -0.444048 0.055038
-0.083808 -0.236233 0.019383
0.169712 -0.093987 0.039094
0.163895 -0.022192 0.069475
-0.393940 0.421615 0.116100
0.101381 0.093223 0.166879
-0.322323 0.476192 -0.068366
0.250351 0.523511 0.091048
0.169014 -0.482014 -0.054036
-0.072435 0.245274 -0.187235
-0.104216 0.369779 0.259746
-0.150478 0.235458 -0.106954
-0.082323 -0.282868 -0.111580
-0.181876 0.217915 -0.060871
-0.011518 0.379725 -0.161803
-0.270926 0.457537 0.212665
0.067590 -0.096860 -0.164023
-0.222600 0.312235 0.158081
-0.020337 0.290920 -0.194050
-0.044242 -0.271337 -0.103078
0.050652 0.136710 -0.137729
0.139618 0.330594 -0.112425
0.152748 -0.491467 0.035879
0.081137 0.472646 -0.122053
-0.041092 -0.196058 -0.156753
0.022351 -0.065375 0.131911
0.135765 0.109546 -0.051101
0.021194 0.201018 0.187143
0.125868 -0.242624 -0.127025
0.047759 0.410308 0.256055
0.169429 -0.316914 -0.031774
0.112368 0.453040 0.320776
0.124801 -0.265080 0.026326
0.036049 0.529487 -0.244445
0.153646 0.504253 -0.007606
-0.208465 0.209957 -0.082826
-0.188006 0.150256 0.128714
0.070189 -0.364408 0.056185
-0.048136 0.429098 -0.201470
-0.048406 0.480728 -0.214713
0.276378 0.484494 0.167064
-0.036694 -0.058223 -0.134972
-0.099919 0.281724 0.237783
-0.124407 -0.091548 0.015417
-0.094012 0.219239 -0.141589
-0.136210 -0.174193 0.028322
-0.110058 -0.136173 0.025876
-0.160238 0.068945 -0.109085
0.205201 0.511028 0.180417
0.183338 0.138487 0.018936
-0.010266 -0.120301 -0.136372
-0.042215 -0.235325 0.116060
-0.329824 0.416521 0.197466
0.197298 0.534775 -0.105971
-0.048965 0.488586 -0.293390
-0.047797 -0.425843 -0.029696
-0.168957 0.081849 0.010552
0.021258 -0.020169 0.177608
-0.098624 -0.312154 0.023954
0.141127 0.530760 -0.128896
-0.174741 0.450569 -0.126213
-0.154544 0.102890 -0.064817
0.063142 0.199843 0.169263
0.098517 0.411183 -0.106271
-0.000777 0.238219 -0.190058
0.012118 0.312202 0.212022
0.153602 0.418690 -0.001982
-0.049292 -0.342445 -0.131673
-0.034309 0.306114 0.217270
0.174722 -0.095312 0.015086
0.061138 -0.013374 -0.168166
-0.312371 0.464438 0.080874
-0.058650 0.435245 0.315842
-0.079113 -0.386206 -0.079483
0.150929 0.023135 -0.096538
0.062323 0.482114 0.339895
0.162571 0.270219 0.125363
0.201803 0.514572 0.134922
-0.247682 0.275116 0.075065
0.181322 0.183156 -0.021810
0.183543 0.427134 0.101673
0.030165 0.483842 0.279865
0.102356 0.247863 0.146494
-0.094827 -0.117842 -0.134900
0.073604 0.531738 -0.224067
-0.047239 0.521203 -0.251298
0.004238 0.084135 -0.183155
-0.075933 -0.256539 -0.063823
-0.203461 0.285570 -0.047037
0.036627 0.288305 -0.183326
0.040621 0.117630 -0.177841
0.136393 -0.090511 -0.044354
-0.195445 0.217916 -0.105165
-0.115264 0.515350 -0.267526
-0.199082 0.462632 0.242468
-0.217171 0.245018 -0.080952
0.101870 -0.162936 -0.146044
0.165041 -0.271353 0.017704
-0.119622 -0.115770 -0.017224
0.086758 0.201843 0.196453
0.292124 0.496136 0.041877
-0.019515 0.422260 0.278313
0.131353 0.534425 -0.183711
-0.107621 0.199938 0.212489
0.113021 -0.002616 0.090618
-0.149557 0.004054 -0.002801
-0.084049 -0.491249 -0.045468
-0.265148 0.490589 -0.165107
-0.127371 0.465921 0.293136
-0.220299 0.158128 -0.019593
-0.006505 0.446840 -0.198624
0.139025 -0.404353 -0.132438
-0.285478 0.464267 0.116229
0.053695 0.381106 -0.139790
-0.073937 -0.161311 -0.143307
-0.085519 -0.170980 -0.080525
0.135605 0.458299 0.135198
0.107486 0.030948 0.103105
-0.192303 0.286394 0.125237
0.151615 0.464736 -0.013325
0.142283 0.036860 0.116920
0.124448 -0.367621 0.005617
-0.108888 -0.089821 0.118571
-0.193171 0.106017 0.094437
-0.143285 0.509439 -0.233451
-0.324663 0.465723 0.050659
0.255984 0.515366 -0.136981
-0.262375 0.464697 0.019613
-0.134939 0.442788 -0.186930
-0.096963 0.166295 0.168008
-0.096279 0.021659 -0.113345
0.082300 -0.134223 -0.157189
0.086167 0.119581 -0.116396
0.093196 0.096095 0.128899
0.087712 0.384585 0.184597
-0.111287 -0.150365 -0.111133
-0.026027 0.100468 -0.184001
0.044409 -0.209885 0.133985
0.176504 0.463252 0.281414
-0.005318 0.213005 -0.154530
-0.034889 0.011084 0.147368
-0.101902 0.281114 -0.144989
0.138710 0.009161 -0.040326
0.151559 0.502752 0.102804
-0.079361 -0.375794 0.024893
0.251938 0.480868 0.169841
0.171638 -0.021003 0.047897
0.050392 -0.431395 0.055994
-0.207593 0.273465 -0.029048
0.122211 0.214119 0.170499
0.146437 0.081756 0.019269
-0.054988 -0.190577 -0.150717
-0.127808 -0.084214 -0.003976
-0.150905 0.166275 -0.090532
-0.016922 0.449032 0.395321
-0.198181 0.207671 -0.004570
-0.266311 0.366329 -0.027880
0.080165 -0.180030 -0.157396
-0.051390 0.514634 -0.179938
-0.135848 -0.048349 -0.016513
-0.246297 0.398690 0.060278
0.251506 0.539954 -0.099031
0.053991 -0.083033 -0.168727
-0.074946 0.239085 0.233184
0.178204 0.050844 -0.026015
0.079774 0.448422 0.334113
-0.050632 -0.156602 -0.117299
0.020654 0.373199 0.258750
0.077780 0.452692 -0.124590
-0.181832 0.138861 0.132041
0.168071 0.424809 0.142421
0.092778 -0.117771 -0.151978
0.097415 -0.393430 -0.158715
0.021689 -0.289284 -0.164241
-0.289450 0.455707 0.210997
-0.208662 0.395328 0.210011
-0.073357 -0.506807 -0.065992
0.016716 0.134696 0.210994
0.146586 0.150644 -0.014849
0.034007 0.294135 -0.147474
0.166632 -0.185412 0.030403
-0.187431 0.292711 0.135829
0.163173 -0.250912 0.027629
-0.091562 -0.272582 0.060958
-0.134965 0.053483 0.148595
-0.350979 0.425288 0.227354
-0.021666 0.490473 -0.281502
0.134437 -0.437429 -0.006803
0.083618 0.173267 0.150515
-0.125024 0.098798 0.172140
-0.138870 -0.009721 0.119562
0.157220 0.468136 0.015602
0.167940 0.469048 0.203282
0.108451 -0.029534 -0.095199
0.146400 -0.191199 -0.102991
0.202540 0.509113 0.199412
-0.058166 0.021682 0.143423
-0.215908 0.497038 -0.179123
-0.013797 0.256890 -0.157133
-0.071584 0.518318 -0.247905
0.086250 0.260669 0.207543
0.042513 0.082155 -0.176361
0.114368 0.171571 -0.088093
0.027694 -0.146138 -0.171314
-0.118901 0.257803 0.224198
-0.315738 0.431711 0.038031
0.091907 -0.281340 0.104242
-0.132944 0.428398 0.384524
0.148275 -0.278740 0.053376
0.048378 0.375006 -0.180857
-0.238619 0.453458 0.300261
0.061141 -0.324171 0.106982
-0.091372 0.482427 -0.274276
0.144095 0.124890 0.047583
-0.151344 0.032352 0.045758
0.112142 0.462447 0.358450
-0.262516 0.420569 0.158807
-0.193273 0.303008 -0.128771
0.135977 -0.182574 0.086694
0.167205 0.328477 0.126639
-0.012731 -0.294973 -0.119387
0.141891 0.507209 0.146340
0.095472 -0.402136 -0.111971
-0.034740 -0.004171 0.180114
0.041310 0.160070 -0.141971
-0.052709 -0.303726 0.038152
-0.228864 0.397901 0.189992
0.004621 -0.184596 0.141486
0.138032 -0.470919 -0.072716
0.125206 -0.287200 -0.127541
-0.231704 0.197433 -0.006100
-0.077674 0.011937 -0.163857
-0.118508 0.512345 -0.236561
0.004103 0.478588 0.308725
-0.340557 0.433760 -0.016629
0.170536 -0.029949 -0.053885
-0.147960 0.459548 0.341812
0.148315 0.378995 -0.021638
-0.231285 0.416369 -0.049334
0.088199 0.534068 -0.233092
0.090541 -0.253904 0.110085
-0.045763 0.313562 0.254576
0.114465 0.109701 -0.087935
0.026876 0.354091 0.252996
-0.235555 0.246176 -0.039196
-0.043915 0.101332 -0.181941
-0.100184 -0.191738 -0.029400
-0.129241 0.450300 0.235574
-0.012446 0.155229 0.182920
-0.165819 0.510576 -0.274648
0.025082 0.242155 -0.185485
-0.044774 0.487849 -0.279602
-0.162862 0.132357 0.152098
0.174444 -0.149360 -0.004353
0.024548 -0.106933 -0.138284
0.185536 0.227026 0.003628
0.120257 -0.450902 0.076201
0.159623 0.073286 0.095737
0.090184 -0.178767 0.082568
-0.027547 -0.219943 0.126258
0.039591 -0.131705 -0.170457
-0.307777 0.489621 -0.206724
-0.080002 0.232348 0.193161
0.036686 -0.414872 0.098172
-0.241366 0.382144 0.008701
-0.184046 0.416832 0.239241
-0.050186 0.243728 -0.155539
-0.135862 0.103872 0.116259
0.147308 0.400905 -0.102334
0.077077 0.494977 -0.211442
-0.082859 -0.232141 -0.060321
0.148247 0.454226 0.183451
-0.081083 -0.221939 -0.126942
0.140447 -0.306939 0.059618
0.023510 0.415095 0.228697
0.038349 -0.198126 -0.168124
-0.285590 0.421029 0.199842
-0.255390 0.438175 0.013937
-0.217312 0.378000 -0.120580
0.155353 0.460181 0.290935
-0.080179 -0.206289 -0.076857
-0.159564 0.014979 0.103395
-0.017764 0.504994 -0.167258
-0.140661 -0.120505 -0.073427
-0.044440 -0.178957 0.131320
0.163850 0.511593 0.122526
-0.191443 0.384365 -0.098108
-0.110237 -0.262891 -0.070307
0.160095 0.441799 0.161121
-0.101369 0.516271 -0.261017
0.178079 0.442473 0.122313
0.130823 0.136648 -0.062092
0.079810 -0.469859 -0.173505
0.088645 0.090986 -0.156679
0.181868 0.107429 -0.006330
-0.155055 0.287795 -0.113147
-0.004215 0.395324 -0.196429
0.121526 -0.293328 0.082042
0.071399 0.225686 -0.167769
-0.252565 0.371114 -0.066208
-0.108274 0.494006 -0.162961
-0.179998 -0.018289 0.001374
-0.070285 0.519820 -0.263787
0.178981 -0.002729 0.007324
-0.250515 0.462393 -0.028041
0.080449 -0.067647 -0.159111
-0.241733 0.462712 -0.231211
-0.197449 0.317690 -0.071388
0.150537 -0.409208 -0.120713
0.113924 0.313293 0.144288
-0.180044 0.413641 -0.159584
-0.077581 0.358740 0.226156
-0.015110 -0.359627 0.046014
-0.231923 0.252632 0.105932
0.106522 0.491159 -0.157155
-0.274139 0.458390 0.198749
-0.183644 0.184072 -0.110971
0.151719 0.285704 0.047924
0.002123 0.122393 -0.150053
0.190399 0.420078 0.008415
-0.144042 -0.147227 0.026612
0.034969 -0.232398 0.094603
-0.158177 0.062450 -0.034083
0.069169 -0.050441 0.119446
0.092564 0.398748 -0.111951
0.124705 0.348748 -0.073584
-0.150681 0.166267 0.176199
-0.192198 0.342120 -0.086326
-0.142457 0.472452 -0.221481
0.157263 -0.478410 -0.110587
-0.126708 0.174338 0.195402
0.141177 -0.023027 -0.028353
-0.151655 0.450593 0.382816
0.128938 -0.057275 0.055553
0.129103 -0.367587 -0.007345
-0.078964 -0.477506 0.002054
0.145328 0.032142 0.006526
0.016510 0.055342 0.158293
0.146258 0.502121 -0.031317
0.050677 0.527686 -0.205324
-0.227518 0.267599 -0.070811
-0.090537 -0.316165 0.039328
-0.282207 0.417781 0.241870
-0.104347 0.476385 -0.162527
0.085737 -0.041505 0.110502
0.140966 -0.449890 -0.031764
-0.000339 0.072745 0.164058
-0.209284 0.218434 0.130546
-0.253957 0.293786 0.068719
0.053473 0.065698 -0.135278
0.138283 0.069252 -0.043501
-0.212195 0.150209 0.078545
-0.256424 0.476380 -0.019969
-0.207346 0.353465 -0.067993
-0.041126 -0.459140 -0.013970
0.077040 -0.115689 0.142692
0.000123 -0.492839 -0.137500
-0.246983 0.355089 0.140711
0.128535 -0.334061 -0.038264
0.101878 -0.073717 0.136388
0.135241 0.533247 -0.165164
0.153339 -0.195480 -0.091930
0.004930 -0.132566 0.153582
0.106593 0.122350 0.120000
0.074289 0.424520 -0.168615
0.174240 -0.121111 -0.030400
-0.070779 -0.304141 -0.119490
0.051660 -0.250525 0.124151
0.119162 0.223310 -0.134327
-0.268085 0.419794 0.317776
0.066942 0.151067 0.197976
0.172995 -0.190932 -0.026689
-0.082676 -0.397220 -0.001970
-0.074288 0.246845 -0.151014
-0.120672 0.100167 -0.151726
-0.082930 -0.478539 -0.066054
0.024696 0.260614 0.197972
0.132585 -0.482284 0.067291
0.082512 0.438207 -0.163697
-0.295964 0.458985 0.164732
-0.010156 -0.378067 -0.110411
0.075015 0.266221 0.215319
0.139953 0.167085 0.142442
0.085351 0.215091 -0.159920
0.054454 -0.476213 0.095208
-0.021847 -0.195879 -0.126803
0.070136 -0.486458 0.093010
-0.168681 0.101512 0.052307
-0.206180 0.322410 -0.058229
-0.072552 0.336344 -0.193927
0.178166 0.363431 0.106012
0.016661 -0.325830 -0.161529
0.229273 0.536213 -0.083043
-0.282468 0.416288 0.258936
0.167690 -0.166952 0.030630
-0.078524 0.161918 -0.178725
0.007827 -0.369627 -0.156686
-0.135843 0.144396 -0.101993
-0.317102 0.456922 0.162538
0.086818 0.499906 -0.256760
0.252308 0.516002 0.180925
0.025232 0.496836 -0.297297
-0.173303 -0.026430 0.042119
-0.241909 0.496586 -0.206124
-0.246273 0.410930 -0.001667
0.127971 -0.472271 0.010450
-0.027628 -0.141416 0.146931
0.114152 0.114086 0.109441
0.136336 -0.405864 -0.042843
-0.121850 0.119002 0.136149
0.121569 0.303633 0.132020
0.283976 0.501466 -0.030311
-0.140744 -0.156279 -0.050034
0.150692 0.216475 0.008426
-0.232336 0.332405 0.153515
0.113681 -0.214469 -0.137461
-0.076929 -0.172219 -0.091561
0.079210 0.311423 0.221189
-0.173614 0.455736 0.354383
0.182090 0.200317 0.054483
0.097059 -0.322705 0.093787
-0.160502 0.337492 -0.117797
-0.040240 -0.112366 -0.128240
-0.249051 0.287963 0.083901
-0.143460 0.018992 -0.048704
-0.102691 0.113585 -0.123535
-0.228150 0.176580 0.011224
-0.174283 0.218967 0.174797
-0.013269 -0.012075 -0.178220
0.111044 -0.007658 -0.092181
-0.063163 -0.494508 0.030547
0.073757 0.168400 -0.165778
0.142681 -0.020422 0.016113
-0.361412 0.429959 0.001760
-0.051552 -0.169852 -0.114787
-0.107571 0.477063 -0.231899
-0.085484 0.403143 -0.196501
-0.142197 0.104566 -0.084638
-0.135538 0.265021 0.176242
-0.065730 -0.222110 -0.139485
-0.031294 0.198332 0.228557
0.131337 0.457025 0.297895
-0.071248 0.135130 0.169907
-0.208993 0.144567 -0.050271
-0.154693 -0.096972 -0.048601
-0.031416 0.160083 0.183914
0.126588 0.498104 -0.186432
-0.010805 -0.082581 -0.138947
0.057751 0.449668 0.292275
-0.052328 -0.157306 0.093289
0.030027 0.441408 0.354088
0.171712 -0.149795 -0.042958
0.144809 0.191467 -0.026054
0.105320 -0.082363 0.085839
-0.016363 0.489466 -0.263192
-0.247103 0.417120 0.084906
-0.002514 -0.304509 -0.159491
-0.135060 -0.003535 -0.056890
0.177141 0.411016 -0.046233
0.146446 0.173242 -0.017804
-0.176536 0.193230 0.162338
0.092233 -0.073306 -0.110702
0.014111 -0.353912 0.101950
-0.086020 -0.394835 -0.044620
-0.239875 0.426508 0.116648
-0.122443 -0.245772 -0.036920
0.055885 0.330812 -0.137976
0.032333 0.362543 -0.149488
-0.227654 0.209461 0.082513
-0.222873 0.453105 0.323909
-0.244301 0.454707 -0.141162
-0.066084 0.034830 0.182346
0.167645 0.465156 0.248244
-0.087706 -0.441112 -0.058547
-0.182672 0.464405 -0.122435
-0.135575 0.487957 -0.305362
0.139080 0.131142 0.066303
0.074361 -0.386326 -0.159368
-0.069293 0.124823 -0.141464
0.090997 0.266825 -0.112966
-0.345058 0.441228 -0.109194
-0.013576 -0.426424 0.086736
0.181990 -0.430943 -0.027918
0.050267 -0.352196 -0.160587
-0.084430 -0.081133 0.095265
0.020415 -0.443902 0.051377
0.101988 0.526703 -0.130203
-0.080912 0.158325 0.172768
-0.021450 -0.280481 0.072739
-0.221826 0.391667 -0.118780
-0.162921 0.427601 0.266719
-0.072474 -0.288334 -0.053941
-0.100967 0.247018 -0.179330
-0.175109 0.060017 0.101778
0.125046 0.368529 -0.073087
-0.151702 0.056958 0.065436
-0.165132 0.175610 0.166870
-0.132550 0.272745 -0.168318
0.160321 0.318884 0.138277
-0.201423 0.469498 -0.260232
-0.187657 0.272889 -0.127881
0.082963 -0.483582 -0.142543
0.177102 0.242728 -0.041864
-0.233862 0.343898 0.029068
0.141407 -0.477452 -0.141419
0.105961 -0.442133 -0.110821
0.053539 0.356807 0.243325
-0.032863 -0.440956 0.073326
0.064183 0.534565 -0.292638
0.088755 0.335245 0.174983
-0.083758 -0.408271 -0.028833
0.067726 0.529405 -0.204188
0.069686 0.142759 -0.167466
0.168683 0.082239 -0.061983
-0.319274 0.447532 -0.150620
0.303806 0.517109 0.027838
0.175469 0.373654 0.115630
0.169387 0.296164 -0.063484
0.236135 0.541014 -0.130449
0.238540 0.503160 -0.106412
0.048857 -0.261799 -0.128929
-0.138703 0.425820 0.326289
0.232642 0.490935 0.257720
0.040484 0.426450 -0.184941
-0.108614 -0.122297 0.106179
-0.024989 -0.259329 0.116418
0.136484 -0.168648 0.011630
-0.104811 -0.121792 -0.065688
0.074786 -0.132001 -0.121995
-0.133915 -0.108444 -0.091701
0.182808 0.215164 0.054506
0.166386 0.024872 0.072241
-0.079807 -0.363552 -0.088756
-0.037264 0.286226 -0.194005
0.140677 -0.147390 0.087011
0.042298 0.464253 0.229792
0.291647 0.537545 -0.021168
0.141763 0.218608 -0.109593
0.226929 0.517529 0.131659
