0.53622180 0.67201900 0.16917057 0.00001787 0.00006206 -0.00014399
0.53677171 0.24085982 0.85463738 0.00009981 -0.00024653 0.00030823
0.63124859 0.33735904 0.85215700 0.00013211 -0.00012887 0.00024747
0.21095015 0.63531065 0.41600764 -0.00011524 0.00014031 -0.00000541
0.15070438 0.30940050 0.49453402 -0.00016586 -0.00014284 -0.00000385
0.69272786 0.56489801 0.82178450 -0.00016900 0.00010976 -0.00004614
0.45703956 0.70439172 0.56341648 0.00004756 -0.00008784 -0.00008197
0.53773302 0.68031478 0.61947602 0.00001681 -0.00005301 -0.00010781
0.55714983 0.28648186 0.19233054 0.00006229 -0.00003477 -0.00017563
0.16367054 0.58132964 0.35337088 -0.00013358 0.00013028 -0.00008589
0.26332664 0.67511106 0.38516992 -0.00014305 0.00010098 -0.00009633
0.27433142 0.50976497 0.33738631 0.00005664 0.00002699 -0.00001080
0.76126057 0.62132466 0.70819378 0.00000421 -0.00006799 0.00002455
0.85528177 0.57257581 0.55096066 0.00009318 -0.00003257 0.00004520
0.77932286 0.59959120 0.62828916 0.00001850 0.00001904 0.00007414
0.66791111 0.26900035 0.34234002 0.00009755 -0.00011067 -0.00005656
0.52681369 0.51637304 0.13865963 0.00000555 0.00001566 -0.00014532
0.57430375 0.28312957 0.85429877 0.00016728 -0.00015024 0.00023189
0.35035050 0.16845100 0.17401825 -0.00003204 -0.00022987 -0.00029753
0.56982321 0.35241789 0.87491417 0.00004384 -0.00002225 0.00025835
0.60010630 0.28587264 0.61852103 0.00001586 -0.00002946 0.00006309
0.45478937 0.73338115 0.29225484 0.00007392 -0.00009878 0.00005637
0.58585125 0.32863215 0.28347731 -0.00012487 0.00004869 0.00006964
0.35261407 0.43596998 0.40496096 0.00001568 0.00000135 -0.00001998
0.19115674 0.31993055 0.16252691 -0.00018473 -0.00001089 -0.00032562
0.49451700 0.29023215 0.30876398 0.00002600 0.00005492 -0.00000510
0.28525943 0.19419892 0.69493568 -0.00023133 -0.00032089 0.00005800
0.18206669 0.59021634 0.53031832 -0.00015275 0.00014082 0.00007905
0.45575380 0.46774286 0.64933503 -0.00005990 -0.00005144 -0.00010711
0.65373129 0.59939420 0.67312634 0.00002526 -0.00000361 0.00007760
0.24735077 0.56205684 0.39033487 0.00015450 -0.00012501 0.00002298
0.28983018 0.51921904 0.16958359 -0.00005289 0.00003093 -0.00021763
0.46435732 0.19309759 0.68977553 0.00000997 -0.00005893 0.00011572
0.53267407 0.61497927 0.15039863 0.00000340 0.00000987 -0.00018530
0.30209139 0.61186749 0.48703349 0.00005020 -0.00015082 -0.00005379
0.42386222 0.37798706 0.59574008 0.00001365 0.00000461 -0.00006103
0.27872571 0.34453124 0.73405015 -0.00007114 -0.00005959 0.00022084
0.68739361 0.50629562 0.60703999 -0.00003973 0.00000266 -0.00007246
0.82451296 0.63842797 0.21625951 0.00002211 0.00011368 0.00011310
0.28829524 0.41415188 0.73012108 -0.00002518 0.00006509 0.00022376
0.57393980 0.47476712 0.63572407 -0.00004509 -0.00001677 -0.00007815
0.49276292 0.73429501 0.21408293 -0.00006700 0.00008089 -0.00011981
0.41786736 0.07748143 0.57909250 0.00008247 -0.00044249 0.00016318
0.42323878 0.45854205 0.64910954 -0.00004798 -0.00004326 -0.00012348
0.57593358 0.79334521 0.21304961 -0.00007955 0.00009107 -0.00010229
0.28875178 0.16456462 0.36170855 -0.00013710 -0.00017042 -0.00004213
0.84703118 0.52236718 0.31203479 0.00014674 -0.00002810 -0.00007324
0.41272613 0.58402044 0.61262977 0.00000466 -0.00007262 -0.00011364
0.45725077 0.79424566 0.52174723 -0.00007362 0.00010365 0.00007055
0.41291758 0.67154992 0.62943637 -0.00005201 0.00007781 0.00009304
0.54940236 0.39210200 0.81933808 0.00002436 -0.00001591 -0.00007335
0.24934539 0.20035920 0.30096039 -0.00016986 -0.00015713 -0.00002746
0.63436991 0.25841016 0.55859101 0.00006486 -0.00011611 0.00006101
0.39794099 0.06535161 0.50076312 -0.00027411 -0.00030740 -0.00002187
0.26155436 0.21822286 0.69566995 -0.00030606 -0.00021615 0.00017053
0.45219660 0.12944652 0.22660600 0.00006170 -0.00032996 -0.00018257
0.68582147 0.51858842 0.86029834 -0.00006511 0.00015884 0.00030030
0.33106267 0.41709834 0.73274547 0.00001914 0.00001983 0.00016636
0.40766168 0.68612844 0.61516631 -0.00008583 0.00007221 0.00009700
0.68410772 0.28995761 0.34087473 0.00012473 -0.00008947 -0.00000877
0.49021760 0.76960063 0.58243215 -0.00006938 0.00012354 0.00002286
0.59830946 0.71059865 0.65655547 -0.00000668 0.00005426 0.00011501
0.59949309 0.73272604 0.64666951 -0.00001254 0.00010902 0.00008367
0.71324360 0.53637373 0.64264703 0.00004155 -0.00001573 0.00004771
0.10549854 0.43259236 0.60203719 -0.00028230 0.00008458 0.00014885
0.18264189 0.61108738 0.39507255 -0.00016553 0.00013767 -0.00005236
0.26054558 0.38378730 0.13030379 -0.00008025 0.00004523 -0.00032700
0.10118806 0.38899973 0.61637133 -0.00040685 0.00000032 0.00022397
0.55026954 0.63283974 0.19170311 0.00002051 -0.00004278 0.00011791
0.33562469 0.53765231 0.24438500 0.00001434 -0.00012264 0.00012367
0.14128362 0.30479494 0.22130497 -0.00031787 -0.00030572 -0.00003103
0.41976622 0.45390168 0.12671413 -0.00000816 -0.00005467 -0.00019705
0.56549770 0.33178505 0.57960522 -0.00011040 -0.00000198 -0.00008890
0.74890763 0.80501378 0.63296986 0.00006006 -0.00008151 -0.00035592
0.14395627 0.54966271 0.31549230 -0.00020456 0.00014267 -0.00007878
0.37874973 0.22023487 0.81303144 -0.00020138 -0.00021027 0.00026507
0.32978171 0.50816756 0.23265232 0.00005554 -0.00011116 0.00014120
0.34441730 0.63124228 0.31198415 0.00007471 -0.00010888 0.00007422
0.33978561 0.46143705 0.13754323 -0.00010479 0.00001133 -0.00016290
0.42216510 0.29634258 0.77124435 0.00008591 0.00000745 0.00004414
0.57141268 0.18643966 0.57501227 0.00013646 -0.00012549 0.00007190
0.47512552 0.24911755 0.76568460 0.00002331 0.00010263 0.00006250
0.69928849 0.52069694 0.22122112 -0.00006539 0.00004289 0.00009868
0.72305685 0.59280753 0.64699626 0.00003972 0.00001485 0.00004850
0.93342131 0.61834818 0.47902498 -0.00007759 0.00028433 -0.00015854
0.33139178 0.72851849 0.41881800 -0.00013285 0.00009555 -0.00003979
0.16902141 0.28936973 0.46381500 -0.00015236 -0.00013769 -0.00000139
0.10802164 0.45642164 0.59112817 -0.00028222 0.00007161 0.00011626
0.34895483 0.47136027 0.62924337 0.00006896 -0.00000026 -0.00015781
0.14746444 0.31615809 0.55505037 -0.00017908 -0.00016334 0.00000596
0.75984436 0.59335262 0.19091982 0.00006980 -0.00003906 -0.00012888
0.63278824 0.32519358 0.22782840 0.00007995 -0.00011019 -0.00009812
0.19369413 0.27589247 0.63626599 -0.00019800 -0.00019903 0.00003082
0.40442961 0.61477828 0.59396940 0.00001896 -0.00009068 -0.00010662
0.46346089 0.18309686 0.75072145 0.00017130 -0.00013612 0.00000486
0.85691243 0.54121345 0.46250948 -0.00006552 0.00008516 -0.00004774
0.50655347 0.84742838 0.34645823 -0.00006723 0.00010792 -0.00008766
0.40173087 0.45591450 0.64826924 -0.00004172 -0.00005139 -0.00014652
0.72710460 0.35749975 0.51026386 0.00008472 -0.00006164 0.00001425
0.84752959 0.61853248 0.76587921 0.00033816 0.00018975 0.00010435
0.31787339 0.14170851 0.46748379 -0.00015557 -0.00015128 -0.00001494
0.80976892 0.45399743 0.35200292 0.00013371 -0.00003936 -0.00001982
0.69989532 0.68118429 0.16299133 0.00007122 0.00005148 -0.00014250
0.08228718 0.50764775 0.38145527 -0.00032716 0.00013762 -0.00010251
0.31885606 0.69305462 0.31793395 -0.00008299 0.00008431 -0.00008461
0.30431068 0.15585592 0.47922987 -0.00011265 -0.00018501 -0.00003646
0.40287176 0.07953856 0.58399945 -0.00011091 -0.00042103 0.00025152
0.53114307 0.08989219 0.46068737 0.00016334 -0.00032737 0.00004913
0.44584092 0.65545774 0.59296453 0.00002667 -0.00006826 -0.00010983
0.53860807 0.79296553 0.23547296 -0.00007309 0.00011929 -0.00006665
0.50696331 0.29630458 0.57518715 0.00000398 0.00006446 -0.00007053
0.53219306 0.76176387 0.21322685 -0.00001473 0.00011560 -0.00012155
0.27599293 0.51586670 0.47001958 0.00003977 0.00001826 -0.00002620
0.51568711 0.10128226 0.52569532 0.00013367 -0.00024895 0.00010440
0.26190251 0.18862574 0.31435061 -0.00013899 -0.00018120 -0.00002817
0.78244567 0.58823282 0.73055863 -0.00005808 -0.00006052 0.00003013
0.14938705 0.31606236 0.58545923 -0.00020313 -0.00016982 -0.00001029
0.39159799 0.23162892 0.13601229 0.00001769 -0.00017777 -0.00038125
0.20791037 0.62062681 0.48899642 -0.00011337 0.00008541 0.00002689
0.47473231 0.20516098 0.70010298 0.00005692 -0.00004071 0.00009072
0.15355824 0.57007796 0.34618604 -0.00016023 0.00011640 -0.00011423
0.55794966 0.33833617 0.68278921 -0.00001585 0.00000610 0.00007003
0.39605638 0.58972186 0.67278451 -0.00003250 0.00003627 0.00008639
0.46751419 0.47731245 0.71533597 -0.00000258 -0.00003354 0.00007213
0.41933420 0.71848845 0.24652520 -0.00006221 0.00007309 -0.00011742
0.26483941 0.66633511 0.35768607 -0.00007838 0.00008022 -0.00010549
0.15034994 0.52982974 0.26800939 -0.00021039 0.00013152 -0.00021904
0.73938555 0.75538599 0.14705026 0.00001241 0.00002732 -0.00031823
0.83555400 0.56586719 0.25396168 0.00014347 -0.00006577 -0.00008690
0.58465183 0.87842196 0.50967437 0.00009242 -0.00004268 -0.00008782
0.72946632 0.61224246 0.79187965 -0.00012287 0.00003677 -0.00010041
0.56744170 0.32097411 0.67265558 0.00003114 -0.00003556 0.00006423
0.51205069 0.28867742 0.26706073 -0.00003638 0.00014167 0.00010868
0.73160338 0.55227047 0.19010331 0.00005387 -0.00000761 -0.00013885
0.11483230 0.50532871 0.56871593 -0.00026852 0.00010673 0.00017754
0.41704765 0.37588245 0.47068417 0.00000695 0.00000744 -0.00002803
0.25350472 0.56849319 0.62848455 -0.00008859 0.00009838 0.00008162
0.12778577 0.33683684 0.57530427 -0.00023514 -0.00016885 -0.00004817
0.55115885 0.29969883 0.56664854 -0.00009697 0.00003326 -0.00012028
0.80294245 0.59652930 0.81077421 0.00014667 0.00001451 0.00026073
0.35355166 0.10225385 0.39788842 -0.00015222 -0.00021295 0.00000475
0.34557402 0.44793999 0.49341685 0.00000487 0.00001284 -0.00004660
0.51020330 0.62053502 0.68142837 0.00005206 0.00005951 0.00012333
0.14399663 0.53146356 0.27656618 -0.00023392 0.00018223 -0.00017096
0.62324643 0.52237350 0.67874146 0.00004100 -0.00001128 0.00004545
0.26564169 0.63279146 0.28137982 -0.00007688 0.00011665 -0.00011341
0.34664768 0.10785394 0.37682357 -0.00018748 -0.00017941 -0.00005232
0.18113148 0.51403350 0.63138831 -0.00017179 0.00013487 0.00014259
0.24526677 0.22878535 0.67844558 -0.00022424 -0.00027998 0.00006738
0.44746289 0.79590559 0.50626355 -0.00010099 0.00011217 0.00005057
0.34291005 0.73518193 0.43227309 -0.00008437 0.00009845 0.00003741
0.86923933 0.55199194 0.35539401 -0.00002598 0.00014412 -0.00000396
0.65590072 0.80490470 0.20013569 0.00009448 0.00006641 0.00010678
0.62132460 0.34817392 0.78946322 -0.00006087 0.00005837 -0.00005288
0.45745254 0.78477424 0.40831959 0.00008123 -0.00010564 -0.00001370
0.80807894 0.58463842 0.67372525 -0.00003929 -0.00008388 0.00004855
0.80761766 0.53589272 0.28385866 -0.00006338 0.00007917 0.00005209
0.58187234 0.25870371 0.43748945 -0.00016825 0.00008958 -0.00001693
0.60634726 0.27716473 0.24126847 0.00007983 -0.00009003 -0.00007284
0.66122866 0.90477598 0.57957590 0.00033734 0.00032857 0.00000930
0.35269797 0.09862226 0.32221195 -0.00023264 -0.00020836 -0.00002545
0.51617205 0.28875339 0.87484616 0.00003202 -0.00007734 0.00026678
0.62712014 0.33698481 0.62544000 0.00001315 -0.00002959 0.00006598
0.65593243 0.35345119 0.50066817 -0.00011154 0.00004459 -0.00006033
0.17835914 0.59322292 0.50918305 -0.00014755 0.00014104 -0.00001759
0.65162987 0.73271418 0.18428089 0.00004737 -0.00001488 0.00011460
0.77608126 0.69317251 0.62904477 0.00001362 0.00004786 -0.00007428
0.48911706 0.16060705 0.21632834 0.00017804 -0.00024412 -0.00019592
0.79172087 0.75123692 0.66231698 0.00006979 -0.00003031 0.00029589
0.78594279 0.62289041 0.20851129 0.00000182 0.00007697 0.00007475
0.53040969 0.43557119 0.13853462 0.00003268 -0.00000069 -0.00017492
0.28935388 0.49355096 0.30254832 0.00003730 0.00005059 -0.00002347
0.43961024 0.75950420 0.44929412 0.00007720 -0.00009397 -0.00003704
0.70557612 0.67784703 0.17891259 0.00002191 0.00004210 0.00011723
0.64696181 0.36350656 0.30774015 -0.00012301 0.00003004 0.00008471
0.37187660 0.55584669 0.68385416 -0.00003899 0.00003569 0.00008153
0.58217138 0.81849980 0.24895734 0.00011412 -0.00002752 0.00009583
0.55401427 0.32590488 0.25794455 -0.00013585 0.00004169 0.00009945
0.68679625 0.83779311 0.17154893 0.00005729 0.00030061 -0.00037266
0.83117324 0.47225034 0.44823313 0.00019488 -0.00001280 0.00001091
0.72843146 0.51551616 0.62941349 0.00005340 0.00000272 0.00006274
0.39874333 0.40062875 0.57667935 0.00000321 0.00001847 -0.00003732
0.29876834 0.59803259 0.51034611 0.00006083 -0.00013743 -0.00007618
0.51491010 0.80658674 0.30494642 0.00009719 -0.00010344 0.00004100
0.62751019 0.32352334 0.33916888 -0.00013607 0.00006191 0.00003282
0.41930497 0.73919493 0.56147963 -0.00005463 0.00007435 0.00007426
0.31529409 0.17387703 0.70251775 -0.00023788 -0.00025200 0.00014562
0.67715073 0.44062456 0.19889271 0.00009897 -0.00002317 -0.00013923
0.40441301 0.78000724 0.43723154 -0.00008015 0.00009749 0.00000005
0.38065812 0.29202342 0.77641398 -0.00005962 0.00003744 0.00009302
0.46121550 0.80461675 0.50968230 -0.00007584 0.00013913 0.00005432
0.15189593 0.29422215 0.25112918 -0.00021722 -0.00022655 -0.00003878
0.82430243 0.70182186 0.18576516 -0.00008068 0.00014860 0.00031707
0.54675108 0.75593746 0.62005675 -0.00000062 0.00008019 0.00008985
0.52761281 0.19735186 0.63579130 0.00005580 -0.00008786 0.00013133
0.29142207 0.53739280 0.27882504 0.00004872 -0.00015518 0.00010599
0.50436741 0.07395191 0.44210687 0.00012831 -0.00033841 -0.00002686
0.43348560 0.35363162 0.37500462 0.00000043 0.00001841 -0.00002519
0.66889143 0.35269165 0.81278545 0.00017717 -0.00015091 -0.00010618
0.53350878 0.26508152 0.31474146 -0.00001581 0.00015537 0.00002069
0.57826525 0.69511491 0.19724464 0.00005088 -0.00004581 0.00011460
0.56936902 0.93416661 0.36897963 -0.00017804 0.00029471 0.00000274
0.49517128 0.66265601 0.17415750 -0.00006618 0.00002939 -0.00015171
0.66806144 0.36609769 0.33046493 -0.00012602 0.00005759 0.00006132
0.53619409 0.85688233 0.44915092 0.00008994 -0.00007890 -0.00003103
0.51197398 0.28943065 0.56243068 -0.00000372 0.00006914 -0.00007132
0.33946440 0.11304896 0.22893846 -0.00026488 -0.00042230 -0.00019600
0.12466846 0.33805609 0.54233736 -0.00021511 -0.00015146 0.00001671
0.37916669 0.66236961 0.30483803 0.00006602 -0.00010931 0.00006524
0.64814466 0.68635875 0.17922512 0.00002323 -0.00000714 0.00012718
0.64943272 0.33935761 0.84439927 0.00019650 -0.00021646 0.00023612
0.70288998 0.38102129 0.39306372 -0.00011677 0.00006419 0.00000589
0.15415086 0.47114742 0.64532447 -0.00028980 0.00010409 0.00018156
0.47402579 0.10231398 0.28106651 0.00007540 -0.00030137 -0.00015457
0.43222758 0.74817103 0.46651456 0.00006139 -0.00010463 -0.00004904
0.45197982 0.54619962 0.64021647 -0.00002489 -0.00005113 -0.00012420
0.44192842 0.42540035 0.12843814 -0.00005916 -0.00000010 -0.00015274
0.65162039 0.32490638 0.59541726 0.00004509 -0.00005695 0.00006290
0.59962207 0.18100651 0.49701440 0.00010500 -0.00012489 0.00001995
0.60001767 0.89764804 0.50460911 0.00016953 -0.00002234 -0.00012447
0.45311597 0.77237058 0.45282051 0.00006670 -0.00010215 -0.00003570
0.23391466 0.22079030 0.39151058 -0.00012175 -0.00015788 -0.00002399
0.46944469 0.58426178 0.69116485 -0.00000851 0.00002471 0.00012801
0.62229306 0.37418216 0.19295081 0.00007222 -0.00003678 -0.00014213
0.51774734 0.78558755 0.54052794 0.00006166 -0.00006046 -0.00007674
0.31859574 0.13911654 0.43540072 -0.00014952 -0.00015956 -0.00002722
0.90994251 0.64256036 0.54331845 -0.00008496 0.00025698 -0.00025937
0.37641567 0.28767815 0.12306828 -0.00000843 -0.00003571 -0.00031712
0.25524613 0.19549571 0.31891820 -0.00016615 -0.00014829 -0.00002460
0.65023261 0.42156303 0.25209680 -0.00009276 0.00004751 0.00009662
0.28180507 0.50786453 0.43497580 0.00002976 0.00001282 -0.00001333
0.57658321 0.17942727 0.55333269 0.00015699 -0.00008798 0.00003826
0.50044465 0.76331776 0.23394831 -0.00001694 0.00009049 -0.00011255
0.63133878 0.30511218 0.43267107 -0.00014575 0.00006732 -0.00001072
0.33615166 0.65329772 0.37575230 0.00006184 -0.00012986 0.00002904
0.65880603 0.87857074 0.20125918 0.00010323 0.00044652 -0.00037351
0.80967480 0.57725811 0.22314213 0.00009649 -0.00003886 -0.00011844
0.65170902 0.34934253 0.33154333 -0.00013608 0.00006991 0.00004193
0.39671072 0.06043985 0.41322899 -0.00030095 -0.00025793 0.00000878
0.78622758 0.60062772 0.59958369 -0.00001883 0.00002019 -0.00004153
0.61684489 0.39548123 0.24873817 -0.00009763 0.00005848 0.00009233
0.51982027 0.28022349 0.28105384 -0.00005084 0.00013866 0.00009611
0.33064806 0.53688562 0.68167919 -0.00006476 0.00005181 0.00006856
0.17546810 0.50872773 0.22948278 -0.00015238 0.00007824 -0.00021976
0.36704791 0.42034143 0.38639709 0.00000856 0.00000887 -0.00002086
0.54483873 0.70125937 0.65021008 -0.00002206 0.00005922 0.00008914
0.84721237 0.70084161 0.63897663 0.00013140 -0.00000818 0.00023298
0.27794245 0.33385721 0.11917955 -0.00011974 -0.00007705 -0.00040227
0.21170099 0.61860532 0.51344126 -0.00012031 0.00012694 -0.00002300
0.60623884 0.18874441 0.35699460 0.00010796 -0.00012494 -0.00004051
0.52461255 0.50738108 0.64807701 -0.00003095 -0.00002725 -0.00009407
0.12051309 0.32960135 0.32576522 -0.00020785 -0.00017639 -0.00006215
0.71327126 0.51652658 0.22872482 -0.00006983 0.00004533 0.00009290
0.40249595 0.46875009 0.19904384 -0.00000690 -0.00007941 0.00014452
0.66859472 0.49448141 0.86981338 -0.00002567 0.00015692 0.00032947
0.52653122 0.27896708 0.17967215 0.00004437 -0.00007035 -0.00015933
0.52988195 0.53927273 0.69748020 0.00001103 -0.00000902 0.00007198
0.64833766 0.23791023 0.48431966 0.00008620 -0.00008366 0.00002728
0.63999367 0.49140206 0.61981386 -0.00003708 -0.00001522 -0.00007852
0.08543217 0.51794362 0.44243997 -0.00031798 0.00012712 0.00004534
0.43047270 0.25454754 0.14319240 0.00007461 -0.00012698 -0.00024827
0.40315741 0.39092550 0.49188590 0.00000428 0.00000986 -0.00002860
0.70912069 0.38881063 0.38472685 -0.00012281 0.00006087 -0.00000351
0.32043293 0.68081564 0.28822368 -0.00010656 0.00011407 -0.00007582
0.16900162 0.56262964 0.29729241 -0.00019622 0.00013305 -0.00007067
0.59512568 0.79555351 0.22449508 0.00009793 -0.00004990 0.00008733
0.71660304 0.47142434 0.56368864 -0.00005961 0.00002325 -0.00008143
0.66893655 0.67577958 0.15987876 0.00004779 0.00005179 -0.00013210
0.32172418 0.53087020 0.16468608 -0.00005713 0.00001437 -0.00018545
0.55037391 0.36335465 0.69041324 0.00001013 -0.00003216 0.00002975
0.31628942 0.61251622 0.22109532 -0.00004504 0.00002165 -0.00015469
0.59235567 0.49723637 0.68797868 0.00003202 -0.00003897 0.00004308
0.52421933 0.76283908 0.56921363 0.00006742 -0.00007159 -0.00008857
0.40841094 0.68989694 0.22859745 -0.00005682 0.00007732 -0.00010338
0.94238156 0.59892982 0.33121815 0.00041653 -0.00007824 -0.00007042
0.07121673 0.38617355 0.44238856 -0.00023785 -0.00023404 -0.00002679
0.11385201 0.44711635 0.60510230 -0.00027160 0.00005785 0.00014307
0.47889718 0.38302460 0.72421002 0.00003115 -0.00004915 0.00003996
0.73561311 0.74867582 0.65603012 0.00001894 0.00003545 0.00011539
0.43200129 0.80129284 0.37566289 -0.00011545 0.00012863 -0.00000103
0.41908342 0.78965908 0.44442669 -0.00004551 0.00012358 -0.00002227
0.85028464 0.50206900 0.37511697 0.00011044 -0.00005599 -0.00007447
0.65998250 0.62144172 0.64148796 -0.00001438 0.00000071 -0.00007424
0.82342261 0.50557637 0.36245939 -0.00008754 0.00009543 0.00000018
0.44623730 0.36878145 0.73619193 0.00004701 -0.00004996 0.00006652
0.30816305 0.60765910 0.51083189 0.00005295 -0.00014823 -0.00007190
0.89089912 0.65508664 0.22792017 0.00020725 0.00040172 0.00013297
0.55866098 0.11995690 0.47911358 0.00018626 -0.00021570 0.00006732
0.44752064 0.71836030 0.53976125 0.00005290 -0.00008767 -0.00007803
0.90256137 0.57541537 0.41734162 -0.00005697 0.00010523 -0.00003740
0.39108449 0.35680196 0.12375504 0.00000636 -0.00000544 -0.00020484
0.84199196 0.49151915 0.37317300 0.00012754 -0.00004255 -0.00004399
0.45343563 0.77950567 0.41825071 0.00008028 -0.00010225 -0.00002679
0.42678887 0.44543663 0.12688580 -0.00005631 -0.00006858 -0.00018051
0.62840265 0.36073974 0.29176190 -0.00012134 0.00003238 0.00007672
0.58681023 0.52773231 0.64258057 -0.00003736 -0.00001612 -0.00007799
0.32767317 0.54463542 0.59362602 0.00002989 -0.00010116 -0.00014042
0.70026398 0.83886129 0.17152202 0.00008184 0.00033834 -0.00054749
0.45795968 0.07816821 0.31033131 0.00005249 -0.00031788 -0.00022501
0.24516629 0.21146052 0.42385316 -0.00014876 -0.00012591 -0.00002596
0.51563877 0.76019251 0.22162698 -0.00002509 0.00013004 -0.00009006
0.78813201 0.57977808 0.61292177 0.00003221 0.00000914 0.00005057
0.65923721 0.83009243 0.20604910 0.00013894 0.00000710 0.00016584
0.62273216 0.54223657 0.15158148 0.00002914 -0.00000554 -0.00016723
0.94766599 0.61290395 0.46791893 0.00039282 0.00031848 -0.00006699
0.59728485 0.84048480 0.25272581 0.00012313 0.00000317 0.00007741
0.64690644 0.51612300 0.20379655 -0.00006208 0.00003177 0.00011588
0.94060534 0.60445631 0.31208780 0.00052075 -0.00019439 -0.00022898
0.75857687 0.46585825 0.51601028 -0.00008502 0.00005295 -0.00005080
0.47042820 0.53147149 0.13585247 -0.00001499 0.00004391 -0.00019666
0.40584350 0.73122913 0.56017494 -0.00004991 0.00009455 0.00005376
0.35182288 0.45967740 0.13453352 -0.00002649 0.00002618 -0.00017817
0.68169147 0.30505207 0.30591092 0.00012139 -0.00010040 -0.00008199
0.74949068 0.62979603 0.64598829 0.00005211 -0.00001165 0.00006181
0.73088497 0.45307013 0.59557319 0.00003873 -0.00004938 0.00005769
0.24065726 0.63353360 0.53490090 -0.00009264 0.00014204 0.00005015
0.56580389 0.80696571 0.23017272 -0.00004479 0.00008388 -0.00008090
0.69998711 0.67215198 0.63958824 0.00000709 0.00000232 -0.00006162
0.25120312 0.54238683 0.35664329 0.00016291 -0.00003941 0.00000459
0.50567603 0.23622894 0.18538775 0.00014758 -0.00011075 -0.00015704
0.56202751 0.80330408 0.59380478 -0.00005037 0.00010317 0.00007683
0.39147377 0.27812600 0.81548256 -0.00014659 0.00008796 0.00012695
0.50192100 0.35443783 0.86711061 -0.00016458 0.00023157 0.00008411
0.28038090 0.59847170 0.45192409 0.00005529 -0.00015378 -0.00003446
0.12327991 0.32330421 0.24616283 -0.00030542 -0.00025658 -0.00007124
0.15760918 0.33728626 0.18198402 -0.00023397 -0.00004562 -0.00034655
0.40481180 0.69995463 0.51408851 0.00004103 -0.00010250 -0.00009388
0.88490975 0.53971970 0.38682038 0.00012945 -0.00008712 -0.00005044
0.55325234 0.30877149 0.79216439 -0.00003866 0.00007125 -0.00000209
0.19605505 0.61556315 0.46495908 -0.00010742 0.00010148 -0.00001825
0.48675218 0.31150585 0.55698562 0.00000508 0.00002635 -0.00007161
0.40954635 0.65831077 0.56409138 0.00003424 -0.00009680 -0.00008465
0.83908677 0.60344118 0.65213823 0.00012781 -0.00012586 -0.00002117
0.82817852 0.65101910 0.73223907 0.00017344 0.00014581 0.00007260
0.18482243 0.26227042 0.26703936 -0.00019150 -0.00018189 -0.00003431
0.29587337 0.36725917 0.11956170 -0.00007457 0.00002143 -0.00033059
0.51086313 0.09256960 0.33187565 0.00016108 -0.00035384 -0.00006793
0.38348582 0.14346102 0.68096393 0.00010660 -0.00024090 0.00001080
0.50439113 0.28564319 0.27789697 0.00005389 0.00011684 0.00004679
0.48970890 0.70478410 0.24091797 0.00006277 -0.00007267 0.00008496
0.64870399 0.88576984 0.56592065 0.00015928 -0.00015290 -0.00009899
0.47016945 0.17754740 0.81677300 0.00002385 -0.00044765 0.00003494
0.60484558 0.26286462 0.59983295 0.00005955 -0.00004879 0.00006368
0.89565182 0.54536647 0.42607093 0.00009425 -0.00011687 -0.00002318
0.26877326 0.19566026 0.55236346 -0.00012417 -0.00017120 -0.00001605
0.47943121 0.37100631 0.20683081 -0.00008009 0.00001482 0.00016037
0.69585937 0.40511799 0.52222914 -0.00009621 0.00004306 -0.00007657
0.44934118 0.61394912 0.61389965 0.00000315 -0.00006130 -0.00010993
0.65719593 0.71862930 0.63505310 -0.00000618 -0.00000293 -0.00010994
0.70831680 0.50267982 0.85644054 0.00011035 0.00001650 0.00023495
0.31091008 0.16405113 0.68034202 -0.00024683 -0.00030406 0.00013718
0.07740863 0.37340206 0.34289625 -0.00026407 -0.00025183 -0.00005037
0.43125835 0.37259343 0.73992711 0.00000931 -0.00002321 0.00009646
0.53600663 0.22402471 0.80500710 0.00014087 -0.00016486 -0.00010447
0.45767248 0.74728566 0.58359760 -0.00008333 0.00010899 0.00002129
0.20706695 0.56805015 0.58901888 -0.00012956 0.00007992 0.00008036
0.60064191 0.26934689 0.24197581 0.00005491 -0.00007797 -0.00011359
0.66410625 0.35157529 0.35472307 -0.00014664 0.00005745 0.00000397
0.31491509 0.60564154 0.52247912 0.00003735 -0.00013346 -0.00009816
0.29815677 0.67980683 0.32476753 -0.00010775 0.00007618 -0.00004217
0.41849792 0.57863158 0.15919121 -0.00000414 0.00000340 -0.00016177
0.16432248 0.50814623 0.23659645 -0.00019203 0.00009018 -0.00021556
0.77585024 0.72126085 0.17658567 0.00003841 0.00006866 0.00017290
0.53105927 0.41035417 0.14103006 -0.00000602 -0.00004178 -0.00019218
0.80311811 0.47711778 0.40571418 -0.00009957 0.00007942 -0.00001341
0.33586916 0.72655946 0.37080020 -0.00007881 0.00012495 -0.00007161
0.41203147 0.46378213 0.19630392 -0.00001535 -0.00005703 0.00015200
0.86944890 0.52272874 0.44181257 0.00011189 -0.00005902 0.00003002
0.36458412 0.42794877 0.12459529 -0.00005219 0.00000559 -0.00023003
0.85538149 0.53510863 0.30776152 0.00012406 -0.00005971 -0.00006090
0.59644544 0.93169171 0.51001382 -0.00018839 0.00028395 0.00010272
0.63375747 0.46797076 0.81456882 0.00000342 -0.00001924 -0.00006779
0.73163342 0.34151363 0.46605963 0.00009230 -0.00007385 0.00004885
0.92100972 0.60413986 0.53308272 0.00021474 -0.00020170 0.00012925
0.49044234 0.68442744 0.64518917 -0.00002158 0.00004889 0.00008241
0.83751148 0.68279994 0.60751629 0.00001573 0.00008174 -0.00012787
0.27376887 0.51719117 0.45554933 0.00004612 0.00001133 -0.00002036
0.30671594 0.62778556 0.43770784 0.00005169 -0.00015148 -0.00000986
0.32154930 0.12565117 0.24452266 -0.00029254 -0.00027473 -0.00003871
0.90712816 0.56243348 0.34425709 0.00009992 -0.00014142 -0.00004429
0.73999399 0.60107553 0.82758075 -0.00016497 0.00009919 0.00029950
0.72102821 0.40520898 0.26133245 0.00003057 -0.00008823 -0.00012130
0.34721577 0.70542425 0.54263252 -0.00012414 0.00006679 0.00006174
0.52892935 0.84927344 0.45047775 0.00010317 -0.00006843 -0.00003664
0.43839735 0.35486034 0.47412902 -0.00000914 0.00002317 -0.00004626
0.49073979 0.37671164 0.20790288 -0.00007939 0.00001910 0.00014443
0.36272323 0.66380328 0.50565505 0.00002374 -0.00013897 -0.00007574
0.27016181 0.57883418 0.36266905 0.00007321 -0.00014977 0.00003416
0.75589234 0.55653661 0.83330274 0.00007618 -0.00000826 0.00023468
0.43563840 0.16673014 0.73789775 0.00018796 -0.00018397 -0.00005518
0.47414207 0.83213609 0.43488565 -0.00008173 0.00010430 0.00001603
0.23329754 0.57420641 0.24527192 -0.00009473 0.00006842 -0.00014463
0.37320423 0.67269075 0.33206314 0.00004976 -0.00014251 0.00002057
0.56602150 0.32079059 0.27229056 -0.00014064 0.00004275 0.00007998
0.64173907 0.31585431 0.42616820 -0.00013710 0.00006391 0.00001342
0.47904828 0.31183499 0.43428192 0.00000241 0.00002071 -0.00002795
0.54914284 0.57641470 0.64364868 -0.00002718 -0.00002439 -0.00009189
0.22654228 0.24165261 0.61192012 -0.00017591 -0.00015649 0.00003635
0.66487771 0.80209202 0.63600177 -0.00006157 0.00006912 0.00008933
0.74477756 0.35765564 0.38974541 0.00008188 -0.00009639 0.00000274
0.83414972 0.56122530 0.56113148 0.00006587 -0.00001087 0.00006322
0.70937544 0.33313087 0.31832954 0.00011862 -0.00008190 -0.00009510
0.50331038 0.24150307 0.86649740 0.00006364 -0.00007860 0.00031898
0.79259521 0.48081583 0.27992007 0.00008232 -0.00004323 -0.00012894
0.36632001 0.09718859 0.52699369 -0.00017878 -0.00022396 -0.00000168
0.09584116 0.52055693 0.49485448 -0.00029414 0.00016684 0.00001726
0.39387900 0.39268988 0.36969489 0.00001373 0.00000351 -0.00002568
0.43385509 0.72302282 0.24123526 -0.00004761 0.00010311 -0.00009128
0.43271732 0.36880836 0.59565622 -0.00000616 0.00002678 -0.00005311
0.81206024 0.68088204 0.68389851 0.00011963 0.00011572 0.00003269
0.69783974 0.67301518 0.65976614 0.00001239 0.00000273 0.00006027
0.60779351 0.42469779 0.61012006 -0.00006851 -0.00000757 -0.00008276
0.65661365 0.84270650 0.62205851 -0.00008060 0.00007756 0.00014267
0.31018376 0.16003659 0.64610219 -0.00021664 -0.00021497 -0.00001807
0.78393471 0.63145673 0.18646774 0.00010415 -0.00004171 -0.00011810
0.17372273 0.27320555 0.26584467 -0.00020162 -0.00018235 -0.00003200
0.67241067 0.50334913 0.80356950 -0.00001092 -0.00003294 -0.00005763
0.67835969 0.48829979 0.86932445 0.00009201 0.00001515 0.00033469
0.46090138 0.67165196 0.64445412 -0.00001437 0.00004108 0.00009432
0.77040285 0.59297925 0.74744117 -0.00006431 -0.00005624 -0.00000231
0.66892147 0.54261869 0.16364801 0.00004851 -0.00006388 -0.00016630
0.56154251 0.23775122 0.22677451 0.00010540 -0.00012422 -0.00009285
0.69172698 0.59118950 0.62941110 -0.00001256 0.00001292 -0.00005662
0.32027072 0.13545725 0.40105483 -0.00013604 -0.00018209 -0.00003386
0.10090246 0.35999125 0.50949323 -0.00025687 -0.00013475 -0.00000137
0.16612959 0.27943546 0.24200508 -0.00024156 -0.00019767 0.00000078
0.64018440 0.70922750 0.63534194 0.00001309 0.00000580 -0.00010191
0.31741846 0.57051790 0.56309682 0.00005941 -0.00011819 -0.00008395
0.65609539 0.49743497 0.21523491 -0.00007157 0.00003468 0.00010619
0.89687502 0.57698435 0.36552212 -0.00008198 0.00013090 -0.00000135
0.65179205 0.26557684 0.30912870 0.00011906 -0.00009209 -0.00006665
0.55807942 0.90410817 0.45771483 -0.00009534 0.00009196 0.00000403
0.31848735 0.50338393 0.23625465 0.00007067 -0.00011390 0.00016621
0.44872326 0.56275702 0.20571284 0.00001007 -0.00007341 0.00011045
0.74481553 0.71706039 0.63724315 0.00000860 0.00000331 -0.00008940
0.27561551 0.50999045 0.17030992 -0.00006532 0.00004870 -0.00021899
0.07916511 0.37982342 0.47123164 -0.00027583 -0.00016648 -0.00001477
0.55437028 0.24931614 0.46630409 -0.00006873 0.00015541 -0.00002126
0.46031272 0.32645079 0.82869953 -0.00003699 0.00002324 -0.00009875
0.46857518 0.81296301 0.50370401 -0.00007348 0.00015955 0.00003227
0.81960821 0.56319457 0.80020773 0.00020682 -0.00003423 0.00022590
0.72129321 0.31938779 0.42141706 0.00012154 -0.00009092 -0.00003894
0.51906389 0.80949044 0.26253349 -0.00002990 0.00009872 -0.00013178
0.61188722 0.57599062 0.15059406 0.00003036 0.00002883 -0.00012888
0.40616632 0.76932371 0.49793223 -0.00004784 0.00014721 0.00004692
0.38746715 0.62649828 0.26596808 0.00003874 -0.00009681 0.00008402
0.80677342 0.68167007 0.70258337 0.00015810 0.00013253 0.00005322
0.16498868 0.59772795 0.40580121 -0.00017450 0.00015082 -0.00005034
0.65387923 0.34255877 0.35146409 -0.00013065 0.00007608 0.00001395
0.48485726 0.31512243 0.57969934 0.00001938 0.00002691 -0.00005581
0.47273612 0.60902077 0.15942381 -0.00002120 0.00009032 -0.00012570
0.47679415 0.42699623 0.64941889 -0.00005813 -0.00002991 -0.00009842
0.58041650 0.20101748 0.57749265 0.00009325 -0.00011378 0.00011199
0.73363358 0.35477728 0.48734283 0.00009171 -0.00006793 -0.00000735
0.50767535 0.69489813 0.18425636 -0.00003329 0.00008268 -0.00014722
0.41469780 0.38518775 0.57706779 0.00000370 0.00001398 -0.00004036
0.67735487 0.46778405 0.64683801 0.00004035 -0.00001357 0.00006120
0.49205714 0.30037689 0.45953381 0.00000121 0.00002508 -0.00004312
0.08201814 0.44924307 0.29997852 -0.00039211 0.00004080 -0.00008738
0.17874919 0.54284257 0.25646737 -0.00017985 0.00013233 -0.00016679
0.47940353 0.06558184 0.40902135 0.00014736 -0.00029867 -0.00004153
0.32134756 0.63291967 0.48183689 0.00004749 -0.00015173 -0.00003058
0.75721443 0.49977770 0.83127958 0.00009622 0.00001507 0.00022789
0.33100411 0.72699857 0.42872772 -0.00008982 0.00010457 0.00002025
0.53784138 0.39085746 0.62535381 -0.00006348 -0.00001999 -0.00008503
0.50623780 0.82526296 0.52551496 -0.00004796 0.00015161 0.00002774
0.37771168 0.15797473 0.18429196 -0.00003266 -0.00017988 -0.00031119
0.38151181 0.63220680 0.27495214 0.00004566 -0.00010952 0.00007177
0.70927101 0.53252143 0.18528016 0.00007349 -0.00001678 -0.00012486
0.49014485 0.49391332 0.70946050 0.00000165 -0.00000014 0.00006115
0.60251153 0.79318708 0.19942361 -0.00000267 0.00004163 -0.00017851
0.62718028 0.54821318 0.67962128 0.00000989 -0.00000226 0.00006990
0.60339683 0.93319577 0.41119403 0.00022219 -0.00021777 -0.00009528
0.51663727 0.26438135 0.86848021 0.00003586 -0.00006690 0.00027732
0.29632670 0.52890325 0.26944301 0.00005998 -0.00011074 0.00011726
0.37772986 0.64827365 0.63218820 -0.00004439 0.00007262 0.00010857
0.13959835 0.36864933 0.66152024 -0.00030182 0.00007342 0.00032011
0.55289078 0.79353285 0.56669360 0.00006398 -0.00006065 -0.00008197
0.65382618 0.24567111 0.36508062 0.00007714 -0.00009255 -0.00005260
0.28844479 0.58669788 0.63601840 -0.00010069 0.00009235 0.00008972
0.51572269 0.81660491 0.27218848 -0.00002932 0.00016292 -0.00008851
0.55607057 0.12521204 0.36363274 0.00018271 -0.00019330 -0.00003269
0.62767398 0.45003352 0.22558932 -0.00008366 0.00001507 0.00010492
0.74836963 0.43956441 0.57078648 0.00005272 -0.00004288 0.00008782
0.81522977 0.52380162 0.51531166 -0.00006781 0.00007967 -0.00006087
0.55135584 0.74874389 0.22556953 0.00007239 -0.00007105 0.00009049
0.17131035 0.54894745 0.58028007 -0.00010669 0.00011427 0.00015124
0.28030652 0.16880545 0.28779724 -0.00013769 -0.00022018 -0.00004463
0.61502588 0.19601473 0.48689583 0.00008693 -0.00009790 0.00008230
0.72354972 0.50601077 0.77867997 -0.00005757 0.00003973 -0.00001492
0.78765494 0.40859532 0.42897776 0.00013640 -0.00008012 -0.00001400
0.51634061 0.09036136 0.49485287 0.00011279 -0.00029560 0.00007112
0.32647926 0.13134937 0.43621722 -0.00012255 -0.00019228 0.00000460
0.59147823 0.82583421 0.24682665 0.00007849 -0.00005293 0.00007892
0.51214570 0.28554034 0.54110473 0.00003662 0.00004567 -0.00001646
0.48815101 0.62755531 0.62281960 0.00000788 -0.00003307 -0.00011563
0.15553150 0.31062686 0.59600985 -0.00020773 -0.00016906 0.00001758
0.59589314 0.35794362 0.26378199 -0.00011156 0.00005671 0.00007835
0.41712362 0.79362452 0.40545386 -0.00009090 0.00013754 -0.00003293
0.36180386 0.42668208 0.40456930 0.00000877 0.00000837 -0.00001657
0.34238866 0.58983976 0.18669562 -0.00009785 0.00004870 -0.00016317
0.46940753 0.32836470 0.82394439 -0.00000843 0.00000212 -0.00007625
0.81389743 0.67626381 0.69300991 0.00013748 0.00011419 0.00004357
0.69427621 0.56459898 0.65517408 0.00003278 -0.00000582 0.00004714
0.78042579 0.65753776 0.79681820 -0.00019919 0.00034928 0.00017088
0.82440692 0.54548836 0.74136239 -0.00002022 -0.00012184 -0.00015390
0.50991607 0.38302380 0.13956791 0.00001400 -0.00001677 -0.00019464
0.59889096 0.17928882 0.35839185 0.00011072 -0.00014111 -0.00003611
0.31398228 0.68300563 0.30293441 -0.00008174 0.00011810 -0.00005217
0.08207751 0.51625597 0.40340230 -0.00037185 0.00012588 -0.00007949
0.21320665 0.50900066 0.65835863 -0.00010460 0.00014631 0.00017198
0.85515517 0.64505190 0.22585200 0.00002831 0.00014502 0.00013758
0.84131402 0.48659316 0.38936564 0.00012577 -0.00005985 0.00000642
0.58601743 0.62945974 0.67624128 0.00000962 0.00001221 0.00008690
0.76970267 0.57503086 0.20184942 0.00009050 0.00001010 -0.00013857
0.74853814 0.58411855 0.77117074 -0.00002999 -0.00002909 -0.00006247
0.48713827 0.30685994 0.48628816 -0.00000483 0.00002920 -0.00003593
0.59938711 0.76680768 0.20930883 0.00003691 -0.00003211 0.00010914
0.62330419 0.56057411 0.64037150 -0.00002442 0.00000276 -0.00006961
0.09459107 0.50583428 0.52771765 -0.00035136 0.00009995 0.00005300
0.67610085 0.41013974 0.21130899 0.00004037 -0.00008353 -0.00016985
0.43792185 0.35206822 0.42154759 0.00000164 0.00001583 -0.00001761
0.44605142 0.43370950 0.19510999 -0.00005923 -0.00003376 0.00014283
0.41758013 0.41608715 0.73364741 0.00002189 -0.00000427 0.00009503
0.46199003 0.54529375 0.70142037 0.00000072 -0.00001811 0.00010486
0.40319774 0.38264087 0.35571602 0.00000175 0.00001749 -0.00000787
0.52809149 0.35459608 0.61706597 -0.00007632 -0.00003174 -0.00010131
0.37029576 0.55178785 0.16018574 0.00001692 0.00004726 -0.00016048
0.70596141 0.64950001 0.16392258 0.00005241 -0.00000598 -0.00015270
0.60818440 0.30854994 0.21596520 0.00003876 -0.00012979 -0.00015677
0.25039372 0.57181549 0.23154624 -0.00010515 0.00004484 -0.00012083
0.86670351 0.61159217 0.26189342 -0.00002890 0.00015988 0.00007342
0.80494654 0.55850357 0.23044488 0.00009963 -0.00004595 -0.00013742
0.37595999 0.32110941 0.12247804 -0.00000580 -0.00004071 -0.00025347
0.47363493 0.20591420 0.71963215 0.00008872 -0.00004754 0.00005767
0.28743204 0.17672931 0.54779667 -0.00012264 -0.00017776 0.00000832
0.50707012 0.10007647 0.53457808 0.00012717 -0.00024114 0.00007988
0.34605110 0.43967512 0.72743016 -0.00002684 0.00001462 0.00014566
0.67277777 0.55840468 0.19614488 -0.00005165 0.00003921 0.00012077
0.34119159 0.39937234 0.12170821 -0.00005739 0.00002071 -0.00025598
0.56595182 0.68153715 0.16670126 -0.00005991 0.00004306 -0.00013352
0.60085791 0.55718070 0.18747020 -0.00002357 0.00000018 0.00013534
0.37215194 0.19338399 0.15741813 -0.00001958 -0.00020215 -0.00030293
0.24167314 0.33673242 0.13276836 -0.00023162 -0.00009714 -0.00031639
0.81611747 0.47322667 0.49279499 0.00011700 -0.00003633 0.00002550
0.52599794 0.21478748 0.65072596 0.00008043 -0.00007282 0.00007393
0.53996420 0.25382835 0.45984632 0.00005897 0.00009375 -0.00000576
0.25860161 0.20389426 0.16767363 -0.00021749 -0.00032319 -0.00034196
0.09256403 0.52412754 0.46255067 -0.00030586 0.00012566 -0.00000558
0.46239755 0.82613248 0.41867322 -0.00007117 0.00012670 0.00004207
0.37709692 0.21445280 0.14333482 0.00002402 -0.00025524 -0.00031062
0.14519687 0.31935614 0.57109821 -0.00017495 -0.00018562 0.00000553
0.12837204 0.42180440 0.22305907 -0.00027956 0.00003055 -0.00020232
0.89727938 0.59690118 0.49499214 -0.00002977 0.00013515 -0.00004915
0.55063820 0.45309943 0.63723999 -0.00006079 -0.00001483 -0.00007639
0.61903173 0.43563846 0.22875489 -0.00008471 0.00003377 0.00009744
0.65319878 0.53912234 0.62806129 -0.00002763 0.00000455 -0.00006426
0.44492158 0.41190255 0.12884165 -0.00000314 -0.00002178 -0.00014552
0.34722129 0.44275132 0.42864385 0.00001942 -0.00000282 -0.00002115
0.74257487 0.72652310 0.63718379 0.00001182 -0.00000009 -0.00010010
0.40744251 0.08292883 0.27281433 0.00006679 -0.00037668 -0.00021425
0.32176292 0.64314032 0.43700445 0.00006004 -0.00013506 -0.00003220
0.25595823 0.54040885 0.47459504 0.00010997 0.00002389 -0.00004433
0.69779068 0.59862757 0.65805799 0.00004450 0.00000413 0.00004919
0.34915179 0.12423570 0.63319379 -0.00020189 -0.00030935 0.00010802
0.56586242 0.38005918 0.60972685 -0.00006275 0.00000685 -0.00008641
0.38491157 0.40365031 0.40479717 0.00000705 0.00000924 -0.00001906
0.89669782 0.54577076 0.41206986 0.00008955 -0.00012136 -0.00002826
0.32665491 0.62840819 0.34125927 0.00007206 -0.00011984 0.00003188
0.36891830 0.51719588 0.70287454 -0.00002579 0.00002861 0.00011327
0.80213302 0.70571697 0.18058677 0.00001876 0.00010237 0.00017606
0.36829719 0.42798042 0.20635608 0.00004093 0.00006676 0.00016733
0.44171485 0.05351605 0.49094835 0.00008341 -0.00043535 0.00010397
0.60584009 0.42692578 0.22761951 -0.00008585 0.00001374 0.00010571
0.33499965 0.45184457 0.72295439 -0.00001460 0.00002146 0.00015646
0.44063959 0.34835824 0.40524104 0.00000089 0.00001757 -0.00001590
0.63833296 0.68351990 0.18056305 0.00000817 -0.00000927 0.00012448
0.61393642 0.55268824 0.64114374 -0.00002541 -0.00000122 -0.00007154
0.22789365 0.62525690 0.53184140 -0.00015379 0.00008831 0.00007990
0.83068192 0.58430213 0.68118149 0.00001709 -0.00014841 -0.00003049
0.31844702 0.53583258 0.25579327 0.00005632 -0.00011065 0.00010321
0.70062876 0.47419274 0.57824117 -0.00006179 0.00001356 -0.00007744
0.65198511 0.57437813 0.67257959 0.00003556 -0.00002049 0.00005783
0.09130441 0.36472815 0.42368385 -0.00023818 -0.00015369 -0.00003938
0.45757836 0.32664466 0.31868795 0.00000478 0.00003027 -0.00001035
0.41668290 0.19697209 0.16253006 0.00009315 -0.00018620 -0.00026642
0.08223021 0.42449284 0.57335079 -0.00036631 0.00008311 0.00017440
0.37464103 0.41876140 0.48905817 0.00001150 0.00000508 -0.00002303
0.07129902 0.42980337 0.30775675 -0.00035530 0.00018875 -0.00012622
0.84432608 0.50269091 0.34257105 0.00012363 -0.00007968 -0.00001926
0.66194314 0.68842375 0.65935946 0.00002857 0.00002921 0.00008765
0.74628162 0.35900146 0.45924741 0.00010628 -0.00008553 0.00000890
0.69900280 0.31435102 0.32724318 0.00014034 -0.00010340 -0.00002538
0.71990150 0.36707485 0.29383644 0.00010296 -0.00006358 -0.00010473
0.50765479 0.86014527 0.41625768 -0.00008841 0.00012346 -0.00001968
0.71325153 0.71556258 0.63752639 0.00001504 0.00000066 -0.00008686
0.85936356 0.51915729 0.35525236 0.00013295 -0.00006267 -0.00004972
0.62608683 0.80218369 0.61781216 -0.00002610 0.00004217 0.00010844
0.87033039 0.57300460 0.53825641 0.00006620 -0.00007777 0.00005000
0.43004784 0.60273153 0.67486858 -0.00003263 0.00004129 0.00009082
0.24377061 0.46650070 0.16148567 -0.00009815 0.00005494 -0.00025996
0.78266644 0.57096094 0.61268759 0.00005131 0.00001145 0.00004702
0.31034437 0.47192833 0.14735410 -0.00010270 -0.00002270 -0.00017906
0.51832414 0.35797921 0.14864455 0.00005196 -0.00005142 -0.00015542
0.47764391 0.35927838 0.21061905 -0.00008412 0.00004041 0.00015743
0.63315696 0.44771531 0.60702807 -0.00005826 -0.00000728 -0.00008384
0.84667593 0.52033067 0.40371719 -0.00009612 0.00010007 -0.00000178
0.80712235 0.43531328 0.41429788 0.00013232 -0.00007436 -0.00005269
0.26719007 0.59373087 0.61122221 -0.00007509 0.00008606 0.00005475
0.67381108 0.45452037 0.58481526 -0.00006931 0.00001202 -0.00007473
0.47239828 0.76267213 0.57663423 -0.00003556 0.00011078 0.00005548
0.75893366 0.53855354 0.57963765 -0.00003737 0.00004024 -0.00006351
0.40875590 0.38726938 0.52179950 0.00000713 0.00000624 -0.00004077
0.61196953 0.30290160 0.48760551 -0.00012936 0.00004926 -0.00005690
0.65380561 0.38115025 0.29541805 -0.00010154 0.00004349 0.00008362
0.39802492 0.06181416 0.45494646 -0.00026890 -0.00027282 0.00000291
0.24689901 0.22123338 0.61098093 -0.00016621 -0.00016241 0.00001762
0.41883814 0.76265627 0.52970910 -0.00006866 0.00013992 0.00001532
0.81247556 0.72218657 0.17330143 0.00013094 0.00022165 0.00024469
0.59965765 0.28922337 0.80188262 0.00011318 -0.00009043 -0.00016372
0.66851008 0.49515393 0.17692988 0.00006826 -0.00005161 -0.00011458
0.07459436 0.38737145 0.53016400 -0.00027631 -0.00030682 -0.00002908
0.55630237 0.38185760 0.87805998 -0.00001198 0.00012137 0.00030382
0.68619257 0.46022889 0.24853088 -0.00008033 0.00006257 0.00008265
0.50548297 0.70337820 0.59651625 0.00002449 -0.00005792 -0.00011923
0.30983800 0.57536715 0.29185846 0.00004270 -0.00012388 0.00009892
0.10272615 0.42043877 0.60540849 -0.00029404 0.00006456 0.00019688
0.63899285 0.31779352 0.39550218 -0.00014929 0.00004627 -0.00001072
0.41465032 0.05489513 0.33338842 -0.00008063 -0.00055613 -0.00015457
0.73426014 0.33704969 0.41921437 0.00010118 -0.00011632 -0.00001219
0.38665932 0.39791653 0.33628657 0.00001543 0.00000543 -0.00001644
0.48544592 0.16320929 0.64382511 0.00005445 -0.00014915 0.00013881
0.44919559 0.74946940 0.32513228 0.00007367 -0.00010610 0.00002314
0.44593352 0.58304572 0.15538950 -0.00003331 -0.00003990 -0.00016898
0.54523754 0.48173761 0.70322031 0.00001144 -0.00002151 0.00006878
0.24342881 0.21380323 0.16870140 -0.00026089 -0.00030397 -0.00035553
0.44311368 0.53675354 0.20149972 0.00000606 -0.00007943 0.00011542
0.82543784 0.61879992 0.20459172 0.00012936 -0.00001536 -0.00016476
0.33835512 0.38746876 0.11996204 -0.00004968 0.00000267 -0.00028156
0.42453715 0.40182108 0.12683596 0.00000260 -0.00005322 -0.00015501
0.79955852 0.54199994 0.74656296 -0.00011140 -0.00001237 -0.00006716
0.13879371 0.32516906 0.56230402 -0.00019734 -0.00016448 0.00000518
0.25170711 0.40645039 0.72405648 -0.00013135 0.00007012 0.00025564
0.75990683 0.81058782 0.64359963 0.00037351 0.00021869 -0.00000668
0.47520468 0.31691292 0.45475972 -0.00000521 0.00002631 -0.00002853
0.46392375 0.59720498 0.15706524 -0.00006005 0.00001014 -0.00014299
0.57977253 0.20669511 0.27613816 0.00010362 -0.00010456 -0.00010581
0.06413707 0.39010346 0.33072922 -0.00040486 -0.00025490 0.00002412
0.39476040 0.75531161 0.32901230 -0.00006614 0.00010105 -0.00007176
0.58033663 0.89025509 0.33256477 0.00016430 -0.00004527 0.00005581
0.48069635 0.53151739 0.64501584 -0.00002855 -0.00002992 -0.00010996
0.43964347 0.76482260 0.38799053 0.00008516 -0.00009456 0.00002089
0.86415428 0.57262564 0.51214451 -0.00004347 0.00012802 -0.00005229
0.68721241 0.31979209 0.29727024 0.00008582 -0.00010609 -0.00010981
0.09160510 0.36035365 0.35878348 -0.00022973 -0.00019035 -0.00002341
0.12683792 0.33440629 0.51564950 -0.00017120 -0.00017293 0.00000919
0.45016640 0.70738721 0.55394900 0.00005364 -0.00009860 -0.00006418
0.29075193 0.57692266 0.20859359 -0.00009181 0.00005781 -0.00010298
0.21697195 0.57532996 0.25841531 -0.00014485 0.00011204 -0.00012051
0.66897213 0.65148038 0.64069277 0.00000822 -0.00000136 -0.00007627
0.19111562 0.53324533 0.61714119 -0.00016301 0.00013285 0.00007035
0.41266996 0.18646498 0.16754626 0.00003217 -0.00021972 -0.00028138
0.75219584 0.43735933 0.35677937 -0.00011967 0.00007315 -0.00000068
0.10017852 0.53859228 0.44873792 -0.00029289 0.00016480 0.00002654
0.29915684 0.24930744 0.13796812 -0.00012423 -0.00012383 -0.00030827
0.26720667 0.42298168 0.72248995 -0.00006017 0.00009418 0.00022893
0.53397638 0.83248979 0.50540745 0.00006949 -0.00006578 -0.00008308
0.54346758 0.81602657 0.25241330 -0.00001416 0.00011533 -0.00011155
0.72600007 0.71680087 0.63768303 0.00002632 0.00000649 -0.00008747
0.20671171 0.62858868 0.38575861 -0.00013738 0.00011296 -0.00006779
0.39955664 0.06965096 0.55874288 -0.00023380 -0.00045907 0.00016410
0.62975562 0.41830724 0.80187714 -0.00000733 0.00000353 -0.00002869
0.39707625 0.38801309 0.34354979 0.00000523 0.00001532 -0.00000420
0.52568072 0.74730545 0.20595022 -0.00003591 0.00007565 -0.00015536
0.36078084 0.43212631 0.48188040 0.00001552 0.00000091 -0.00003407
0.72728813 0.34225416 0.35848364 0.00010724 -0.00005884 -0.00003482
0.17122647 0.52330393 0.24473391 -0.00014876 0.00012916 -0.00018639
0.58280671 0.31414765 0.29598454 -0.00011977 0.00005472 0.00007166
0.85140097 0.70930815 0.63479674 0.00025503 0.00009992 0.00021483
0.71603656 0.38339329 0.27457315 0.00008384 -0.00004079 -0.00010332
0.28156453 0.60267764 0.39725390 0.00006450 -0.00014911 0.00002527
0.74972415 0.43060958 0.37511066 -0.00011263 0.00007413 -0.00000947
0.55760711 0.16837345 0.57554871 0.00015005 -0.00014743 0.00007733
0.72997743 0.38583574 0.28949276 0.00008141 -0.00007503 -0.00009359
0.60418731 0.82158548 0.23405354 0.00012140 -0.00005934 0.00008070
0.26322457 0.65753537 0.51822722 -0.00011380 0.00011002 0.00001737
0.76923746 0.46295136 0.79562432 0.00025170 -0.00008359 -0.00011747
0.57625878 0.58652067 0.64365262 -0.00001755 -0.00001439 -0.00008508
0.76599276 0.48968121 0.82465416 0.00023238 -0.00010966 0.00016518
0.72638696 0.44013563 0.23790035 0.00007863 -0.00005681 -0.00012335
0.38759848 0.58486468 0.67299581 -0.00001675 0.00004276 0.00008595
0.84166688 0.52441323 0.35784039 -0.00009271 0.00008572 0.00000877
0.43231463 0.48212054 0.71765417 -0.00000607 -0.00001247 0.00009094
0.94164491 0.58050674 0.37633225 0.00032158 -0.00021516 -0.00002273
0.56092066 0.27680710 0.31540528 -0.00014941 0.00006153 0.00008830
0.39955193 0.49355653 0.13549721 0.00000062 0.00007610 -0.00015636
0.28736007 0.34027776 0.11699031 -0.00006854 -0.00004165 -0.00041282
0.40203390 0.32820567 0.12508662 0.00003219 -0.00002997 -0.00022944
0.50608671 0.79887104 0.26164734 -0.00000121 0.00011146 -0.00013881
0.37674090 0.24056628 0.82278293 -0.00028480 0.00000655 0.00028737
0.42177585 0.04679324 0.41429630 -0.00008277 -0.00051585 -0.00002409
0.19525041 0.37863502 0.15825443 -0.00020868 -0.00003503 -0.00029520
0.68402386 0.56746542 0.16471139 0.00004618 -0.00002135 -0.00016216
0.42118803 0.69193828 0.61766732 -0.00003583 0.00010528 0.00010235
0.75331938 0.71083283 0.15525262 0.00003994 -0.00004959 -0.00019260
0.55849481 0.55727404 0.69187218 -0.00000404 0.00000543 0.00007704
0.61287546 0.89189208 0.23911166 -0.00011567 0.00021562 -0.00022817
0.72173947 0.71377927 0.65656179 -0.00000325 0.00002619 0.00006493
0.26457831 0.54011220 0.52028513 0.00013969 0.00002639 -0.00006089
0.47013626 0.35792306 0.63419783 -0.00002404 0.00001167 -0.00010735
