0.28226680 0.16025551 0.58884037 0.00017070 -0.00020762 0.00013031
0.20945005 0.33242825 0.29224634 -0.00003024 0.00012549 -0.00003382
0.63157851 0.73798931 0.76199764 0.00003266 0.00008775 0.00008831
0.73814726 0.76087648 0.51305705 0.00001546 0.00004920 0.00001048
0.39757207 0.34004042 0.34476554 -0.00004205 -0.00005052 -0.00000615
0.79328662 0.71612775 0.79228562 -0.00002605 0.00012776 0.00008388
0.81209725 0.51788831 0.41680747 0.00000239 0.00001784 -0.00005686
0.78791690 0.75567788 0.25645444 0.00001855 0.00000312 -0.00028587
0.43574867 0.49934134 0.49212703 -0.00007734 -0.00002541 0.00002838
0.78050244 0.77532923 0.35612312 0.00002311 0.00010180 -0.00001703
0.37330815 0.28481743 0.42255899 -0.00003830 0.00002417 0.00001553
0.88731068 0.46865880 0.70063341 0.00008624 -0.00000771 0.00004351
0.36864489 0.25840110 0.33970040 -0.00010874 0.00001000 -0.00003743
0.86792618 0.52335936 0.77822268 0.00003314 -0.00001417 0.00002333
0.62336755 0.28311673 0.65922338 -0.00006057 -0.00015274 0.00004860
0.84951103 0.74101299 0.29456913 0.00013291 0.00022660 -0.00006914
0.82769853 0.40595305 0.75267434 0.00007606 -0.00009353 0.00008508
0.48310545 0.23007590 0.25370005 -0.00003055 -0.00018150 -0.00001544
0.51045978 0.37896687 0.69046932 -0.00012190 -0.00010348 0.00007680
0.47013164 0.65132105 0.52523279 -0.00004639 0.00002300 -0.00005331
0.46252349 0.61278522 0.51895970 -0.00004053 0.00001666 0.00003246
0.85585648 0.73395216 0.33604905 0.00011145 0.00015769 -0.00003893
0.79026699 0.72974461 0.56448478 0.00004915 0.00004574 0.00000099
0.79005879 0.53418481 0.90132099 -0.00001447 -0.00005713 0.00024175
0.45320177 0.46509424 0.54288763 -0.00008521 -0.00003212 -0.00001079
0.45980039 0.67178816 0.54130352 -0.00008558 0.00006281 -0.00011396
0.59109843 0.67870349 0.24619317 0.00000809 0.00009333 -0.00007598
0.55780697 0.36075184 0.09994326 -0.00004530 -0.00006504 -0.00020005
0.14151040 0.33013922 0.39452797 0.00001780 -0.00003138 0.00010278
0.83678871 0.47167760 0.40820834 0.00007401 0.00000323 -0.00016838
0.85054624 0.37943223 0.54624569 0.00011639 -0.00011313 -0.00002537
0.69237536 0.79215860 0.71335483 0.00009199 0.00012846 -0.00000710
0.44349349 0.42518800 0.14173263 -0.00010947 0.00000790 -0.00016178
0.57529140 0.68843585 0.75159013 -0.00005110 0.00005599 0.00005697
0.80637300 0.65279269 0.35837677 0.00005661 -0.00000083 -0.00003663
0.40608284 0.44821340 0.18590507 -0.00007373 0.00002068 -0.00014368
0.52064466 0.52743024 0.16591056 -0.00005679 -0.00006623 -0.00014427
0.77963203 0.68342620 0.84082234 -0.00001931 0.00012154 0.00010985
0.75995094 0.56715322 0.88873208 -0.00012516 -0.00001959 0.00009824
0.75434810 0.74881560 0.55328470 0.00002776 0.00005844 0.00000611
0.46351850 0.42580447 0.51403761 -0.00005355 -0.00007085 -0.00004457
0.38000730 0.29813853 0.18849632 -0.00014520 -0.00013146 -0.00008194
0.77592194 0.58245707 0.34375286 0.00004705 0.00000436 -0.00005744
0.63170069 0.48497054 0.18535934 0.00002548 -0.00007300 -0.00009497
0.91998088 0.56375343 0.69193053 0.00010506 -0.00001618 0.00002566
0.58204842 0.74864686 0.70965606 -0.00008396 0.00003549 0.00007836
0.89384830 0.59035540 0.85624671 0.00019081 0.00002251 0.00010732
0.48509955 0.30018485 0.12330701 -0.00005017 -0.00004424 -0.00020299
0.80485880 0.72985315 0.69424689 0.00003358 0.00006441 0.00002493
0.65138412 0.38257805 0.80086946 -0.00005108 -0.00011370 0.00011900
0.48119017 0.42291826 0.62338644 -0.00009276 -0.00002251 0.00002211
0.74784994 0.35776275 0.48293713 0.00005265 -0.00004680 -0.00006547
0.61814088 0.37810445 0.33322954 -0.00000608 -0.00003675 -0.00004573
0.75371796 0.75084025 0.53712809 0.00003031 0.00005753 -0.00000552
0.54879069 0.24296136 0.22026150 0.00012545 -0.00013157 0.00000557
0.55131602 0.32068488 0.67592895 -0.00011345 -0.00012468 0.00006782
0.07574402 0.31214923 0.35982835 -0.00014464 0.00009610 -0.00002215
0.59298402 0.31157699 0.23990636 0.00003414 -0.00007363 -0.00002202
0.90242082 0.57672971 0.84354693 0.00017965 0.00000569 0.00009184
0.45450780 0.23935984 0.24034040 -0.00006971 -0.00016198 -0.00002379
0.48586151 0.50136918 0.18624666 -0.00000704 -0.00002994 -0.00004584
0.69673723 0.70008123 0.36320484 -0.00000324 0.00003104 -0.00002824
0.62019604 0.72560298 0.35821122 0.00002324 0.00001423 -0.00003062
0.91077489 0.68405151 0.64088941 0.00003597 0.00011910 -0.00003744
0.28104350 0.36976251 0.29148519 -0.00007200 0.00009083 -0.00000431
0.61364716 0.82268202 0.32499772 -0.00008834 -0.00004399 -0.00015764
0.66913223 0.78153962 0.64106941 0.00001492 0.00004204 0.00000590
0.68482029 0.42054886 0.82478458 -0.00000860 -0.00005884 0.00015140
0.24148691 0.28502318 0.31983775 -0.00001516 -0.00013463 0.00007245
0.11413037 0.37403834 0.37941453 -0.00018049 -0.00002504 -0.00012747
0.62218851 0.43543965 0.19314994 0.00001342 -0.00000415 -0.00001586
0.36551195 0.32550970 0.31917787 -0.00001847 -0.00002209 0.00001048
0.70779985 0.76166898 0.63993853 0.00002363 0.00005175 0.00001381
0.76205754 0.37405849 0.49117297 0.00003903 -0.00001544 0.00000277
0.58201706 0.72250617 0.48173314 -0.00000850 0.00001579 0.00001722
0.57102120 0.84557396 0.57352197 -0.00013246 0.00004271 0.00010522
0.82278925 0.74946904 0.37706843 0.00002409 0.00010052 -0.00003467
0.57562172 0.32564956 0.49089810 -0.00004387 -0.00007236 -0.00004824
0.37574267 0.29411021 0.36536366 -0.00004266 0.00001248 -0.00000396
0.51032954 0.74347484 0.58809370 -0.00008216 0.00010584 -0.00004512
0.48575300 0.37968379 0.44312334 -0.00003549 -0.00004794 -0.00001236
0.49957401 0.47145978 0.68423158 -0.00008581 -0.00000076 0.00000083
0.31164324 0.29493645 0.26367518 -0.00006725 -0.00014698 -0.00009427
0.61986005 0.27556485 0.61783183 -0.00002310 -0.00018093 0.00001434
0.53341281 0.48565695 0.76155967 -0.00013892 -0.00001986 0.00009515
0.42244604 0.25699297 0.22343464 -0.00009690 -0.00012964 -0.00006637
0.51068240 0.43120798 0.71509093 -0.00011487 -0.00005090 0.00009108
0.93396187 0.56804293 0.65098268 0.00011856 0.00002275 0.00007349
0.53685606 0.23574945 0.20731334 0.00008159 -0.00020861 -0.00004628
0.78514558 0.50879169 0.86131674 -0.00006284 -0.00007405 -0.00001438
0.45615146 0.64087093 0.53081238 -0.00007726 0.00002663 -0.00007021
0.54771686 0.51741892 0.77365577 -0.00008427 -0.00002924 0.00006827
0.60209435 0.81945181 0.40165225 -0.00010682 0.00001698 -0.00002515
0.58083636 0.36869836 0.76237136 -0.00011984 -0.00008195 0.00010123
0.51862812 0.46636173 0.71855664 -0.00006997 -0.00000298 0.00003584
0.60593778 0.49911147 0.82635111 -0.00008850 -0.00004338 0.00015168
0.68507832 0.74200720 0.77777976 0.00001682 0.00006878 0.00012859
0.53628856 0.30939886 0.32319573 -0.00001538 -0.00006245 0.00001510
0.50903797 0.35269922 0.61771053 -0.00008224 -0.00008467 0.00003632
0.43122286 0.35761887 0.14466225 -0.00003877 0.00003762 -0.00012815
0.74108726 0.69778657 0.79117244 -0.00000636 0.00004107 0.00002136
0.91031837 0.67097718 0.39653006 0.00006024 -0.00007894 -0.00015955
0.42325622 0.31513268 0.13191342 -0.00009715 0.00003416 -0.00024663
0.33680093 0.31478626 0.32016084 -0.00002922 -0.00002347 0.00002304
0.88353962 0.64902556 0.81363916 0.00010464 0.00010001 0.00008404
0.28785190 0.18126833 0.60657072 0.00011642 -0.00020018 0.00022168
0.40998095 0.48738497 0.23392497 -0.00008703 0.00005143 -0.00005895
0.57607985 0.85468191 0.46939179 -0.00017444 0.00005435 -0.00013193
0.82394743 0.53701878 0.90304583 0.00003937 -0.00006973 0.00024192
0.64814264 0.27247208 0.63651061 -0.00003744 -0.00018501 -0.00000268
0.42581773 0.60554922 0.31588900 -0.00013753 0.00006737 -0.00000347
0.25776494 0.32181332 0.35749027 -0.00002896 -0.00003241 0.00006119
0.73399276 0.76974809 0.31128761 -0.00005415 -0.00003964 -0.00004228
0.61423552 0.69304615 0.79119492 -0.00012577 0.00001871 0.00013880
0.57871366 0.62691563 0.18870930 -0.00001767 0.00009658 -0.00018823
0.61959726 0.45330024 0.19194433 -0.00001104 -0.00005519 -0.00005250
0.66917640 0.27111778 0.59686643 0.00001773 -0.00018380 -0.00004334
0.68910098 0.79068291 0.73904943 0.00015778 0.00020160 0.00000248
0.07388660 0.33336216 0.39211914 -0.00011315 0.00008902 -0.00009857
0.76154071 0.77791643 0.46384841 0.00008046 0.00010139 -0.00000057
0.46195760 0.34058774 0.36498588 -0.00001810 -0.00003368 -0.00000241
0.48035750 0.68869716 0.37195188 -0.00008146 0.00011158 0.00002383
0.80524379 0.72095656 0.57979107 0.00003303 0.00004546 0.00000987
0.93215990 0.51212233 0.56541389 0.00015242 -0.00006679 0.00000886
0.73837954 0.75562489 0.56394792 0.00002699 0.00006144 -0.00001229
0.92719996 0.68309265 0.55117095 0.00004438 0.00015526 0.00004174
0.58744144 0.75392497 0.40133157 -0.00004039 0.00004309 -0.00002763
0.63534963 0.31882104 0.47596231 -0.00001818 -0.00008218 -0.00006714
0.24336040 0.34428576 0.29764825 -0.00006374 0.00002928 -0.00005290
0.33843336 0.22202651 0.56083184 -0.00004806 0.00005689 0.00007218
0.77480716 0.75144464 0.68769962 0.00007358 0.00006839 -0.00003683
0.51629972 0.57339984 0.75125897 -0.00011118 0.00004533 0.00010233
0.14616965 0.39471683 0.36441767 -0.00012549 0.00009566 -0.00013421
0.84851760 0.70738709 0.73096704 0.00002267 0.00009171 -0.00003927
0.53907436 0.67277193 0.23654273 -0.00003582 0.00017209 -0.00007566
0.62702453 0.38944194 0.11582424 0.00018333 0.00001103 -0.00014222
0.20880948 0.39769790 0.34741706 0.00001281 0.00013172 0.00003148
0.50399852 0.59416354 0.73011756 -0.00008623 0.00002833 0.00008398
0.50719023 0.70307833 0.35369423 -0.00006392 0.00010820 -0.00002592
0.70618755 0.77026486 0.57643712 0.00001878 0.00006638 0.00001428
0.44218338 0.59673864 0.55182117 -0.00008244 -0.00004028 -0.00005671
0.45055670 0.49458808 0.18611082 -0.00004757 0.00007225 -0.00005216
0.92002982 0.68448311 0.57729632 -0.00000254 0.00013953 0.00002158
0.70845008 0.53124398 0.84502345 0.00001715 0.00000617 0.00010633
0.75079960 0.75271291 0.53199142 0.00002426 0.00005830 -0.00000577
0.81444329 0.35672432 0.57228988 0.00004749 -0.00007234 -0.00008208
0.92627090 0.64246792 0.47451797 0.00009728 -0.00006738 -0.00002604
0.67812437 0.51931173 0.19587700 0.00008579 -0.00003377 -0.00014743
0.84218746 0.67591208 0.38584200 -0.00001573 -0.00002139 -0.00004439
0.43910185 0.56536007 0.46782613 -0.00007241 0.00000008 0.00001131
0.36389562 0.33521721 0.20638664 -0.00008425 0.00005652 -0.00011713
0.65023398 0.76922649 0.33038354 -0.00000537 -0.00003096 -0.00002991
0.61763215 0.35589889 0.37917826 0.00001476 -0.00007886 -0.00004565
0.49436340 0.25996116 0.31083834 0.00005558 -0.00003863 0.00004421
0.54258907 0.50008076 0.76986140 -0.00010709 0.00001065 0.00007282
0.41753766 0.26237315 0.20583525 -0.00008470 -0.00015882 -0.00005576
0.46601325 0.23467167 0.24726214 -0.00004378 -0.00017694 0.00001004
0.61375487 0.35795081 0.77416861 -0.00006995 -0.00010709 0.00014780
0.93068898 0.54643214 0.65607351 0.00012141 -0.00002096 0.00007111
0.47708312 0.62399894 0.22522938 -0.00011415 0.00006249 -0.00014312
0.81993681 0.56492925 0.43252692 -0.00000215 0.00002107 -0.00004165
0.50076437 0.43805179 0.70164287 -0.00011959 0.00000278 0.00009170
0.10083341 0.31289750 0.31448889 -0.00011974 0.00012460 -0.00013474
0.80367649 0.49932927 0.86848688 -0.00006469 -0.00013422 0.00005122
0.54455501 0.71144760 0.44169670 -0.00001193 0.00006415 0.00001055
0.57538623 0.39003026 0.09210364 -0.00000985 -0.00002108 -0.00028584
0.57365102 0.54866570 0.15790217 0.00001641 -0.00002997 -0.00020231
0.70418781 0.76242280 0.68908048 0.00001119 0.00005201 -0.00000331
0.35997018 0.21435085 0.37069723 -0.00010097 -0.00012630 -0.00011601
0.90088820 0.46632954 0.49634662 0.00015702 -0.00007835 -0.00010120
0.67631596 0.27361739 0.58979040 0.00000366 -0.00017434 -0.00004305
0.48949358 0.63806266 0.22457755 -0.00006353 0.00010914 -0.00016441
0.10888842 0.29241031 0.35869026 -0.00004439 -0.00012604 0.00004966
0.52998328 0.68660736 0.70857346 -0.00009366 0.00000087 0.00006646
0.65221518 0.27924436 0.66469836 -0.00003475 -0.00016613 0.00003836
0.55441195 0.49411303 0.78371131 -0.00010409 -0.00002402 0.00009973
0.92752063 0.60603869 0.53004158 0.00006829 0.00005559 -0.00002325
0.71285856 0.41599330 0.82044923 0.00004501 -0.00005509 0.00014772
0.86891240 0.52012509 0.87381637 0.00018143 -0.00005880 0.00016900
0.90432012 0.55520165 0.73715824 0.00005382 0.00001849 0.00009389
0.44522390 0.64637089 0.63716000 -0.00014761 0.00007218 0.00008251
0.54159081 0.32590032 0.55279690 -0.00006035 -0.00008091 -0.00002771
0.48959082 0.30215237 0.12207731 -0.00007096 -0.00003589 -0.00020042
0.37701741 0.30483523 0.18361443 -0.00018098 -0.00011671 -0.00008862
0.55527115 0.82708168 0.50537252 -0.00010447 0.00001001 -0.00009098
0.60859013 0.33450830 0.10983888 0.00007630 -0.00003559 -0.00025218
0.39765486 0.22404468 0.40750262 0.00001481 -0.00000563 0.00006624
0.59515327 0.72770071 0.37063697 0.00001292 0.00001460 -0.00003716
0.89682209 0.57342792 0.85689300 0.00020037 0.00002177 0.00011388
0.91290796 0.53175509 0.70738554 0.00012065 -0.00003843 0.00000699
0.49548623 0.39598352 0.66151887 -0.00012397 -0.00002929 0.00003432
0.55029285 0.69290304 0.72591722 -0.00006143 0.00007824 0.00005349
0.82930517 0.63825315 0.43432087 -0.00001221 -0.00003206 -0.00002147
0.81283510 0.72618484 0.75271690 0.00006666 0.00011621 0.00004407
0.81851345 0.40837872 0.76319683 0.00007157 -0.00006699 0.00009519
0.85283130 0.69789666 0.78112811 0.00009463 0.00013816 0.00006481
0.60339713 0.83433217 0.38407218 -0.00014108 0.00002368 -0.00001114
0.92270547 0.56733966 0.67653096 0.00008391 -0.00000111 0.00003800
0.31008723 0.20676601 0.47722578 -0.00012288 -0.00000296 -0.00001177
0.49222869 0.24188276 0.30212986 0.00003808 -0.00009883 0.00010235
0.84212875 0.43753257 0.76115215 0.00008565 -0.00004373 0.00009581
0.49669260 0.61665517 0.71448493 -0.00009453 0.00004899 0.00005941
0.65882194 0.38766086 0.16036481 0.00013514 0.00006238 -0.00012170
0.60265046 0.79174066 0.65369850 -0.00001697 0.00004627 0.00000316
0.40898752 0.55502564 0.36266631 -0.00013841 0.00004263 0.00002300
0.69691324 0.78653169 0.70734370 0.00010157 0.00004151 -0.00006564
0.43199682 0.61589891 0.62269604 -0.00020117 -0.00001676 0.00003090
0.84707254 0.38589668 0.70868272 0.00012483 -0.00011643 0.00006782
0.91597265 0.59826982 0.49541029 0.00007212 0.00003591 -0.00008301
0.80688578 0.49776924 0.84255838 -0.00003661 -0.00005375 -0.00001475
0.54422224 0.35056612 0.40908119 -0.00004076 -0.00005636 -0.00004256
0.93756413 0.68174720 0.45192182 0.00020065 0.00015846 -0.00005433
0.71601641 0.59507734 0.24485175 0.00009285 0.00004599 -0.00008569
0.49653670 0.30059394 0.12064826 -0.00005093 -0.00004318 -0.00020981
0.72901762 0.38545865 0.42250672 0.00005086 -0.00007757 -0.00004440
0.67860180 0.79094577 0.49454543 0.00000558 0.00003581 -0.00000858
0.51515758 0.49981958 0.71364337 -0.00007281 -0.00000136 -0.00002397
0.42749432 0.25183058 0.29915202 -0.00004571 -0.00009262 -0.00002191
0.74423635 0.29891974 0.67379266 0.00007562 -0.00015233 -0.00001123
0.82965076 0.37163118 0.51741731 0.00002793 -0.00016861 -0.00002916
0.72792453 0.46759301 0.32284209 0.00005601 -0.00002047 -0.00002052
0.73753643 0.45672578 0.82958043 0.00003389 -0.00003978 0.00011356
0.49021453 0.64473206 0.69421953 -0.00010443 0.00001549 0.00007330
0.41262442 0.25980362 0.28739420 -0.00005765 -0.00008445 -0.00001916
0.74281776 0.29513013 0.64973766 0.00011550 -0.00013138 0.00004490
0.64387888 0.72837341 0.35663429 0.00000864 0.00000760 -0.00002717
0.83445632 0.72331876 0.26803145 0.00007208 -0.00010016 -0.00025009
0.90777379 0.44833878 0.61319351 0.00016206 -0.00002934 0.00001233
0.58288103 0.26467425 0.16490753 0.00011647 -0.00017584 -0.00011371
0.79570585 0.73935968 0.46056116 0.00001178 0.00001762 0.00000733
0.86881751 0.62935823 0.43954512 -0.00002585 -0.00001955 0.00000031
0.64689451 0.44466329 0.22106925 -0.00001673 -0.00006808 -0.00005861
0.60319304 0.74007583 0.74305362 -0.00004855 0.00013661 0.00007194
0.88853717 0.52584767 0.75491595 0.00004574 -0.00000776 0.00008430
0.54898435 0.31113571 0.60071552 -0.00007084 -0.00011418 -0.00003877
0.50329608 0.23273627 0.21177888 -0.00000947 -0.00019023 -0.00008080
0.36803326 0.27357000 0.44999528 -0.00003809 0.00002873 0.00002086
0.67363870 0.75779009 0.34191713 0.00000268 -0.00002675 -0.00003344
0.72932464 0.79684597 0.38441458 0.00000516 0.00008192 0.00000317
0.56908494 0.30038899 0.64904809 -0.00006693 -0.00015907 0.00001846
0.60320914 0.44988593 0.81487936 -0.00006726 -0.00000632 0.00015904
0.58934790 0.36033711 0.09892818 0.00004401 -0.00010203 -0.00021721
0.73949832 0.30902752 0.55473548 0.00006421 -0.00012917 -0.00007383
0.38288462 0.43154556 0.30982882 -0.00007443 0.00000769 0.00002505
0.52641714 0.44596535 0.13510020 0.00004860 0.00004999 -0.00008990
0.54117048 0.72191948 0.53350484 -0.00001007 0.00002768 -0.00004816
0.91511983 0.69678348 0.43672240 0.00011675 0.00012440 -0.00004895
0.46641514 0.25845736 0.15996857 -0.00007672 -0.00019709 -0.00010098
0.91985393 0.68205428 0.60979372 0.00002047 0.00012348 -0.00003031
0.83846939 0.68991798 0.33980650 0.00006118 -0.00006712 -0.00004817
0.50248593 0.54187894 0.73081440 -0.00012739 -0.00004710 0.00007052
0.91656822 0.53653818 0.49499878 0.00014639 -0.00002821 -0.00005077
0.65880501 0.80447179 0.29186216 0.00002188 -0.00005592 -0.00017439
0.59761673 0.28326944 0.61289853 -0.00005905 -0.00015628 -0.00001535
0.48179618 0.57195711 0.19573314 -0.00008189 0.00005613 -0.00013418
0.65918756 0.35643500 0.15494764 0.00015029 -0.00004436 -0.00017062
0.90514076 0.53870261 0.80558342 0.00014174 -0.00009423 0.00000968
0.30194619 0.37060159 0.33215898 -0.00004310 0.00003847 0.00003408
0.41860178 0.23682004 0.37593195 0.00003264 -0.00005723 0.00005191
0.73325330 0.79916960 0.36956236 0.00002800 0.00007937 0.00001883
0.58408827 0.33859128 0.32555148 0.00001892 -0.00004369 0.00001375
0.83685952 0.70461422 0.56802523 0.00005414 0.00004154 0.00000466
0.09950726 0.33986601 0.37316549 -0.00010768 0.00003053 -0.00007420
0.90681171 0.51444751 0.71228594 0.00012548 -0.00005319 -0.00000312
0.91340226 0.54965669 0.48506218 0.00013281 0.00000108 -0.00008771
0.70374256 0.55320281 0.21676767 0.00010216 0.00000200 -0.00013129
0.80948347 0.54374522 0.42377266 -0.00000435 0.00001637 -0.00004301
0.42217919 0.25322104 0.43215156 0.00003074 -0.00003196 0.00001052
0.58575517 0.83284688 0.46115112 -0.00009128 -0.00001302 -0.00005419
0.72613704 0.78387529 0.48046401 0.00002371 0.00005344 0.00005142
0.49110585 0.52517092 0.68513495 -0.00005244 -0.00006874 0.00001885
0.41012961 0.26169482 0.28217232 -0.00005768 -0.00008783 -0.00002254
0.42372802 0.50828367 0.26048037 -0.00003614 0.00000841 -0.00002898
0.55212617 0.45156735 0.15484476 0.00002959 0.00001112 -0.00004903
0.69726288 0.54390514 0.21052104 0.00009115 -0.00000774 -0.00013425
0.43518284 0.59950030 0.56169987 -0.00011129 -0.00005054 -0.00008495
0.47473222 0.35611752 0.13474014 -0.00004873 -0.00004548 -0.00009099
0.70628965 0.64152354 0.27731457 0.00004870 0.00006681 -0.00002290
0.30536932 0.35358495 0.26826373 -0.00007440 0.00003404 -0.00007121
0.88212985 0.41366887 0.61969888 0.00008341 -0.00009069 -0.00004134
0.58913970 0.64784575 0.21235035 -0.00002197 0.00004942 -0.00012563
0.42196703 0.46080792 0.43877193 -0.00008908 -0.00002106 0.00002453
0.72785461 0.49971667 0.84158099 0.00003783 -0.00000323 0.00010328
0.44417581 0.24914047 0.31427428 0.00000244 -0.00009451 0.00002048
0.51540273 0.46656585 0.15215226 0.00006959 0.00003511 -0.00005663
0.18242209 0.33507013 0.31351316 -0.00009026 0.00005003 -0.00005210
0.40447295 0.26938975 0.21102899 -0.00008376 -0.00015782 -0.00002832
0.41355598 0.54342133 0.39186677 -0.00008667 0.00000919 0.00001678
0.06670765 0.33286065 0.40050694 -0.00018930 0.00006169 -0.00009164
0.38987231 0.46266615 0.23333263 -0.00012021 0.00004853 -0.00000911
0.73764569 0.61637390 0.84082472 -0.00003401 -0.00001902 0.00001321
0.54072118 0.70668310 0.39180812 0.00000615 0.00005092 -0.00000652
0.86052138 0.69425166 0.52466297 0.00004146 0.00004848 0.00000239
0.60649800 0.78329742 0.67331606 0.00000366 0.00006018 0.00002997
0.76224482 0.38541040 0.47691634 0.00001706 -0.00001452 -0.00001978
0.65257204 0.32804710 0.45792007 -0.00000371 -0.00009565 -0.00006686
0.62385941 0.85480559 0.38930526 0.00010233 0.00013781 0.00002338
0.79792577 0.59374148 0.39935118 0.00002983 -0.00000243 0.00002257
0.76455551 0.33569863 0.56030458 0.00008067 -0.00003397 -0.00001161
0.62931520 0.36864209 0.26157022 0.00004518 -0.00000654 -0.00003141
0.35723346 0.16610427 0.44047987 0.00005865 -0.00023087 -0.00001505
0.71604615 0.44067118 0.33973256 0.00005770 -0.00001847 -0.00001609
0.89258480 0.63942015 0.81088394 0.00012736 0.00007958 0.00008201
0.32034367 0.22490951 0.49699283 -0.00007377 0.00004316 0.00004444
0.17744134 0.33132553 0.30689600 -0.00005583 0.00012341 0.00004456
0.66431785 0.39598674 0.81290376 -0.00003264 -0.00006938 0.00017367
0.62255740 0.85731244 0.35855925 0.00010990 0.00019164 0.00002227
0.67391843 0.78874999 0.54972178 0.00002023 0.00006401 0.00000390
0.51708657 0.30126506 0.11558797 -0.00004820 -0.00009246 -0.00022286
0.74700201 0.52432942 0.28503606 0.00012670 -0.00004665 -0.00002764
0.56922239 0.86114389 0.47992876 -0.00005783 0.00001574 -0.00023484
0.77330816 0.76978022 0.44024917 0.00003502 0.00007158 -0.00003433
0.57599467 0.83548307 0.46745476 -0.00007869 -0.00000276 -0.00011771
0.67725307 0.63815105 0.82710981 0.00002677 0.00002409 0.00012914
0.32001495 0.21831085 0.52594894 -0.00006351 0.00004382 0.00005064
0.72271472 0.76910347 0.50513548 0.00001775 0.00003664 0.00000562
0.44527611 0.67637426 0.58985227 -0.00017717 0.00007351 0.00001585
0.42148235 0.52871221 0.43973076 -0.00009584 -0.00002759 -0.00001370
0.89222234 0.54791820 0.85820228 0.00017334 -0.00006272 0.00010447
0.67854476 0.82874459 0.36093992 0.00002837 0.00011074 0.00000471
0.54220724 0.23832382 0.20550011 0.00011433 -0.00018836 -0.00004248
0.67014569 0.69906926 0.34681830 0.00001501 0.00003275 0.00001277
0.85121417 0.39951915 0.71756965 0.00010041 -0.00007713 0.00012299
0.55012888 0.59804308 0.77146167 -0.00007635 0.00002734 0.00009494
0.83089900 0.74790901 0.33509824 0.00006419 0.00010276 -0.00001293
0.58830303 0.85670251 0.57026041 0.00008331 0.00015408 0.00006126
0.72778708 0.47041896 0.31131172 0.00006270 -0.00003252 -0.00002713
0.94770241 0.65363020 0.58481848 0.00014084 -0.00004751 -0.00000019
0.78151029 0.55122483 0.37143987 0.00004566 -0.00003409 -0.00002409
0.50533837 0.65200341 0.71007800 -0.00010855 0.00004480 0.00008475
0.84353364 0.57389897 0.44191208 -0.00000102 0.00000602 -0.00005505
0.62029886 0.37022787 0.29059869 0.00002428 -0.00001786 -0.00001053
0.93714213 0.55362874 0.56344473 0.00008312 -0.00005434 -0.00006939
0.51065105 0.23778693 0.28836992 0.00011034 -0.00008956 0.00008753
0.22660175 0.36879963 0.36662632 -0.00004207 0.00002387 0.00008085
0.74592334 0.59250140 0.30305174 0.00006771 -0.00000621 -0.00001753
0.80257702 0.72679573 0.52763438 0.00003479 0.00005826 -0.00001596
0.81787044 0.72450429 0.73418200 0.00002532 0.00009363 -0.00006265
0.91037059 0.46429291 0.62545127 0.00013676 -0.00001821 -0.00002119
0.85977560 0.50879729 0.80544192 0.00001228 -0.00004367 -0.00002235
0.09308701 0.28763130 0.33770475 -0.00008383 -0.00023104 -0.00000344
0.54477197 0.31324068 0.61022693 -0.00009331 -0.00011328 0.00000071
0.40701917 0.53182906 0.37222269 -0.00012221 0.00000598 -0.00001433
0.84044254 0.60261154 0.89446437 0.00008452 0.00005129 0.00020667
0.59613788 0.79398149 0.45898181 -0.00003755 -0.00001591 -0.00002071
0.74984562 0.58306307 0.87778443 -0.00012005 -0.00005103 0.00002738
0.92147255 0.53749943 0.68214345 0.00012854 -0.00002230 0.00004743
0.19924666 0.30153272 0.28623441 -0.00013210 -0.00011682 -0.00018173
0.43175250 0.60200387 0.41668531 -0.00009782 0.00001578 0.00004084
0.72794062 0.46204567 0.33933714 0.00003342 -0.00001817 -0.00003099
0.71190369 0.65756363 0.32388210 0.00001028 0.00003578 0.00000072
0.77934426 0.77261984 0.38723165 0.00004448 0.00008636 -0.00001483
0.45461953 0.57423007 0.52537990 -0.00004820 0.00001076 0.00001728
0.31216568 0.31111401 0.32891110 -0.00002074 -0.00002802 0.00003582
0.93569386 0.56184053 0.54223096 0.00012036 -0.00003026 0.00000542
0.18424334 0.34737530 0.38336489 -0.00003450 0.00001830 0.00009272
0.70278454 0.80697536 0.40837309 0.00006412 0.00000191 -0.00001766
0.34978366 0.19896576 0.49390489 0.00002059 -0.00010977 0.00000828
0.48864883 0.40211442 0.62654513 -0.00008936 -0.00003579 0.00002058
0.87234753 0.60926646 0.87053478 0.00013037 0.00009239 0.00013677
0.81047523 0.33846992 0.63633376 0.00006077 -0.00014872 0.00000431
0.05668589 0.30991325 0.38465407 -0.00015449 0.00013483 -0.00009823
0.38787824 0.27529639 0.30225605 -0.00005401 -0.00003186 -0.00001331
0.41835099 0.22945864 0.43817315 0.00003714 -0.00010970 -0.00002129
0.46288916 0.43911111 0.54205495 -0.00006332 -0.00003661 0.00000637
0.33394447 0.34190992 0.33162609 -0.00002193 -0.00001427 0.00002505
0.54740661 0.30825835 0.31692019 0.00000723 -0.00007689 0.00000346
0.74239898 0.58200860 0.28429499 0.00009849 0.00001200 -0.00002046
0.67829716 0.68088317 0.30641216 0.00003363 0.00003763 -0.00001356
0.65844411 0.57372695 0.18487068 0.00009685 0.00005212 -0.00015948
0.72169882 0.52808207 0.23546413 0.00013125 -0.00004776 -0.00010700
0.47684118 0.64650989 0.24786012 -0.00011725 0.00010738 -0.00008791
0.43019244 0.60240257 0.57167739 -0.00015643 -0.00004979 -0.00006083
0.51987308 0.69140810 0.27554715 0.00000055 0.00015370 -0.00007613
0.84168994 0.37196311 0.57651830 0.00003662 -0.00012006 -0.00001393
0.46633476 0.49812773 0.18502095 0.00001929 0.00003942 -0.00006073
0.59024405 0.40235552 0.09595918 0.00005359 0.00003180 -0.00026630
0.58460748 0.26833445 0.20133273 0.00009910 -0.00010676 0.00006951
0.56960177 0.55066544 0.79596269 -0.00005893 0.00000866 0.00011877
0.56257874 0.77455765 0.55191034 -0.00002097 0.00001623 -0.00002986
0.46512353 0.30313212 0.12366387 -0.00000664 0.00001627 -0.00025668
0.81548095 0.42681077 0.78152519 0.00009129 -0.00005992 0.00009788
0.35556895 0.28747782 0.26656380 -0.00002923 -0.00012047 0.00000244
0.87685889 0.68650293 0.48665038 0.00002185 0.00001593 -0.00000040
0.31576562 0.35974556 0.33483702 -0.00003961 0.00001004 0.00004181
0.44769695 0.60925919 0.65205562 -0.00011428 -0.00003499 0.00006664
0.46401599 0.65800655 0.28146586 -0.00011377 0.00013287 -0.00005505
0.64646286 0.51156938 0.18293850 0.00001290 -0.00005426 -0.00013849
0.61975396 0.85066164 0.46071225 0.00009746 0.00010990 0.00007684
0.56968534 0.39061698 0.76688522 -0.00010352 -0.00009801 0.00008215
0.72266006 0.76444745 0.55329281 0.00003487 0.00005509 0.00000329
0.81196302 0.73590285 0.25874108 0.00000213 -0.00004758 -0.00023790
0.76373333 0.74432433 0.27235875 -0.00004822 -0.00003658 -0.00012392
0.94663584 0.64821059 0.66268504 0.00019121 0.00004871 0.00009930
0.50664043 0.39273325 0.69606090 -0.00014552 -0.00005918 0.00008808
0.85351115 0.44994304 0.75459927 0.00009267 -0.00004071 0.00007245
0.85775977 0.49653313 0.83142340 0.00004443 -0.00012932 -0.00004320
0.74967676 0.32544219 0.73468518 0.00008163 -0.00014678 0.00009384
0.68682879 0.77185953 0.32019299 -0.00000440 -0.00006648 -0.00002844
0.47442675 0.66568619 0.41727766 -0.00004325 0.00006919 0.00006249
0.84081143 0.58824319 0.44161958 -0.00001031 0.00001578 -0.00005277
0.55473268 0.39551255 0.75659490 -0.00008754 -0.00006932 0.00011689
0.79517704 0.76215279 0.43151176 0.00002530 0.00010930 -0.00003677
0.61606324 0.82173437 0.54407722 0.00001972 0.00001717 -0.00002008
0.77444869 0.46584970 0.40096506 -0.00000734 0.00000394 -0.00004934
0.46645856 0.46319097 0.61005491 -0.00010418 -0.00003094 -0.00001151
0.70762461 0.64875156 0.82350183 0.00002674 0.00003195 0.00007726
0.65286618 0.81756145 0.64662164 0.00009541 0.00013026 0.00000393
0.45757648 0.45150948 0.55113554 -0.00008448 -0.00005244 -0.00001579
0.80550736 0.36965880 0.73979449 0.00009196 -0.00011347 0.00006626
0.85225987 0.38539594 0.61728531 0.00003496 -0.00004054 0.00002515
0.37158334 0.42103434 0.24771142 -0.00011101 0.00000498 -0.00002955
0.91510457 0.55890930 0.79113382 0.00015983 -0.00007817 -0.00006523
0.69886231 0.76785851 0.62549382 0.00002016 0.00005925 0.00001381
0.81078875 0.73858732 0.64092958 0.00003257 0.00010056 0.00002108
0.69982594 0.63527614 0.25895888 0.00006556 0.00007384 -0.00005031
0.88689667 0.43282753 0.66509062 0.00009966 -0.00006431 0.00007142
0.40620744 0.48809791 0.37211904 -0.00009701 -0.00005404 -0.00002179
0.67587471 0.43876311 0.83122814 -0.00002468 -0.00005588 0.00014415
0.32678723 0.23896280 0.45347464 -0.00009570 0.00003355 -0.00000522
0.57642627 0.41167080 0.78484786 -0.00010595 -0.00002850 0.00013124
0.61842942 0.36031461 0.29143456 0.00003581 -0.00002521 0.00000015
0.64919800 0.70657301 0.79748416 -0.00006515 0.00007132 0.00011844
0.50846410 0.26766172 0.30314174 0.00003504 -0.00004804 0.00002618
0.42917410 0.37244055 0.37090862 -0.00002309 -0.00003562 0.00000583
0.84447402 0.52764243 0.42918742 0.00000681 0.00001791 -0.00009533
0.65004110 0.36116898 0.14556885 0.00009695 -0.00006187 -0.00018043
0.86068535 0.72742420 0.36708686 0.00011337 0.00004542 -0.00004054
0.80134648 0.76475930 0.31769097 0.00006631 0.00009267 -0.00004428
0.54642773 0.52522475 0.77317685 -0.00010317 -0.00001762 0.00005566
0.60385454 0.72153848 0.35942245 0.00003254 0.00002014 -0.00002390
0.62823576 0.57860082 0.17380406 0.00005878 -0.00000556 -0.00020140
0.45254910 0.49046731 0.17510931 -0.00002007 0.00011165 -0.00008777
0.50175291 0.69665247 0.66457385 -0.00007139 0.00007351 0.00003517
0.62520814 0.40109849 0.25258929 0.00000951 -0.00003034 -0.00003215
0.43893063 0.31242090 0.36478657 -0.00001648 -0.00001497 0.00000410
0.30860513 0.14209351 0.52810937 0.00018720 0.00012523 0.00016869
0.18371768 0.30642021 0.36661667 -0.00005442 -0.00009481 0.00007074
0.56951982 0.43314901 0.78693593 -0.00010820 -0.00004092 0.00012056
0.58649623 0.29272619 0.57750130 -0.00007581 -0.00011224 -0.00003172
0.33640873 0.23387355 0.50969267 -0.00005362 0.00002446 0.00006058
0.82525432 0.71543491 0.72012389 0.00003004 0.00006544 0.00001950
0.29869831 0.15856445 0.56091702 0.00008510 -0.00014092 0.00005586
0.94446337 0.56969863 0.59135681 0.00016170 0.00000938 0.00003791
0.34534785 0.25662965 0.39839071 -0.00008411 0.00001193 -0.00002250
0.46072149 0.43393344 0.52736431 -0.00006933 -0.00005086 0.00002055
0.60076576 0.76878840 0.48205784 -0.00002557 -0.00001132 0.00000763
0.87371153 0.63141495 0.42830411 -0.00002765 -0.00003756 -0.00003121
0.48582453 0.71779549 0.57999367 -0.00007937 0.00010432 -0.00005125
0.45170280 0.59668082 0.66293579 -0.00013492 0.00000279 0.00007816
0.13493262 0.29608417 0.35864928 -0.00008893 -0.00012812 0.00004220
0.35753086 0.20381388 0.56192732 0.00000071 -0.00014260 0.00004279
0.66918927 0.79619014 0.65837544 0.00009130 -0.00000971 -0.00003943
0.75041223 0.31578934 0.56450891 0.00009113 -0.00010555 -0.00003499
0.78623223 0.36191565 0.55149561 0.00001576 -0.00003665 -0.00003130
0.41686168 0.57134706 0.40054792 -0.00013907 0.00000577 -0.00002414
0.75040984 0.42458442 0.40249699 0.00002570 -0.00005365 0.00001054
0.47610256 0.42395672 0.12360926 -0.00006581 0.00001228 -0.00022080
0.51438040 0.34455419 0.61395621 -0.00008783 -0.00008815 0.00001418
0.68835109 0.67006975 0.81480622 0.00002360 0.00002468 0.00010613
0.22517994 0.28220290 0.30519211 0.00001512 -0.00021623 0.00002639
0.91838551 0.58063024 0.69790387 0.00008915 -0.00001140 0.00002091
0.75683486 0.54523134 0.30600306 0.00009275 -0.00003692 -0.00005121
0.64818847 0.27094337 0.59549123 -0.00003207 -0.00018395 -0.00002884
0.50146359 0.37505108 0.63765359 -0.00010580 -0.00003633 0.00000970
0.36520651 0.20607960 0.45752546 0.00004115 -0.00007524 0.00000199
0.81484598 0.76050109 0.28481340 0.00014544 0.00011880 -0.00006975
0.92841524 0.65813112 0.42060590 0.00021566 -0.00004748 -0.00009891
0.52839750 0.45244265 0.14372832 0.00005609 0.00004229 -0.00005660
0.54041576 0.34172663 0.69020087 -0.00011428 -0.00008729 0.00006324
0.41625649 0.36703220 0.35996175 -0.00003399 -0.00003625 -0.00000003
0.51812339 0.69707769 0.40614113 -0.00001687 0.00006401 0.00001801
0.85291964 0.70891988 0.32255194 0.00006797 -0.00015518 0.00000673
0.69284797 0.47008061 0.23894751 0.00000761 -0.00009455 -0.00011049
0.29274184 0.18689768 0.53245836 -0.00011762 0.00004159 0.00002089
0.34608087 0.21368937 0.58828175 0.00005673 0.00007054 0.00014343
0.83445233 0.51063704 0.42047173 0.00000324 0.00004219 -0.00008866
0.84519655 0.65169239 0.85700548 0.00008463 0.00011669 0.00012111
0.95078397 0.65982938 0.63944906 0.00025131 0.00011321 0.00003134
0.43219453 0.52824605 0.24300556 -0.00009857 -0.00002184 -0.00005371
0.58179116 0.72408873 0.73857605 -0.00012349 0.00007037 0.00006514
0.80157071 0.49870077 0.85595661 -0.00006148 -0.00009411 -0.00001982
0.42057577 0.46078137 0.43583506 -0.00009710 -0.00001229 0.00001893
0.13615672 0.32551453 0.32561660 -0.00012539 0.00006885 0.00003089
0.75335389 0.59149832 0.32050160 0.00002602 -0.00000297 -0.00004917
0.75429428 0.65310049 0.86152005 -0.00011134 0.00006556 0.00012441
0.61462855 0.34564325 0.28902096 0.00004220 -0.00005589 0.00001886
0.61235082 0.77557838 0.37376189 -0.00003069 0.00001580 -0.00004443
0.65178925 0.57572019 0.18174493 0.00006883 0.00003630 -0.00018502
0.41490141 0.48042461 0.41825664 -0.00008934 -0.00002915 0.00000996
0.83658856 0.66605031 0.39358678 -0.00000947 -0.00002883 -0.00002529
0.52116710 0.33609730 0.11400945 -0.00006411 0.00004352 -0.00015136
0.35761201 0.20549530 0.53582287 -0.00000004 -0.00010769 0.00002313
0.61655027 0.84578371 0.49406239 0.00006502 0.00006964 0.00004021
0.42934531 0.27196091 0.40889391 0.00002301 -0.00001008 0.00002452
0.86001265 0.60731578 0.44584399 -0.00000831 0.00003752 -0.00005511
0.82112557 0.71586978 0.53798813 0.00003778 0.00005583 0.00001257
0.70707566 0.79581803 0.30342868 0.00002900 -0.00010420 -0.00011812
0.71840191 0.64395726 0.30776647 0.00002587 0.00004198 -0.00000302
0.35366088 0.29816827 0.29618463 -0.00001482 -0.00003843 0.00002998
0.88057297 0.40242302 0.56088644 0.00014539 -0.00011239 0.00001806
0.85809004 0.55959171 0.89211023 0.00013364 -0.00000478 0.00018488
0.39201832 0.35162544 0.18202865 -0.00009508 -0.00002348 -0.00006110
0.64404845 0.77670926 0.72794425 -0.00009265 0.00002911 0.00002640
0.36909097 0.19474697 0.39064351 -0.00002177 -0.00019890 -0.00008182
0.46454805 0.67378139 0.53887141 -0.00005261 0.00007883 -0.00010986
0.88959169 0.42319557 0.55558747 0.00013704 -0.00004158 0.00000873
0.40272483 0.27564684 0.19283970 -0.00012679 -0.00013035 -0.00008937
0.44913569 0.57943428 0.65826052 -0.00016465 -0.00003578 0.00004240
0.63890052 0.82282585 0.60534424 0.00008829 0.00002980 -0.00006032
0.56376666 0.36468211 0.74527597 -0.00009811 -0.00007289 0.00012926
0.05596495 0.28701001 0.38709584 -0.00010022 -0.00028505 0.00015225
0.63459247 0.40949026 0.22163267 0.00000607 -0.00001530 -0.00001153
0.23196748 0.28626978 0.32616392 -0.00004492 -0.00013415 0.00006354
0.61154866 0.36898369 0.34982747 -0.00001963 -0.00004353 -0.00005757
0.41682476 0.34751594 0.14652288 -0.00012870 0.00005923 -0.00009919
0.73762482 0.51825482 0.84246588 0.00001651 0.00000272 0.00007576
0.74819875 0.64570612 0.86133033 -0.00010253 0.00006905 0.00010019
0.54055160 0.59318691 0.17453063 -0.00001396 0.00009601 -0.00015739
0.47848883 0.36545771 0.12993221 -0.00007582 -0.00008053 -0.00010140
0.59747207 0.77202672 0.45880580 -0.00002680 0.00000754 0.00001315
0.22901537 0.37911716 0.35966599 -0.00002263 0.00006753 0.00005606
0.60392928 0.83835566 0.38142547 -0.00015447 0.00002619 -0.00001599
0.36649248 0.17201252 0.43428627 0.00010432 -0.00019222 0.00003949
0.65892559 0.33768386 0.16492036 0.00017959 -0.00014063 -0.00009275
0.66646624 0.80773902 0.69043559 0.00010887 0.00013848 0.00001867
0.41993597 0.25115463 0.31298110 -0.00002932 -0.00008997 -0.00005587
0.43157727 0.64483571 0.59509903 -0.00019200 0.00005140 0.00000806
0.58419675 0.70448083 0.28376293 -0.00000997 0.00010654 -0.00006023
0.30918464 0.19723934 0.46875441 -0.00014534 -0.00001779 -0.00001915
0.32158223 0.23144144 0.46564075 -0.00010868 0.00002886 0.00001380
0.94107240 0.67457789 0.56638801 0.00010466 0.00020017 0.00006383
0.40588430 0.26517418 0.45960870 -0.00000691 0.00000892 0.00001977
0.54733592 0.31247956 0.63582343 -0.00009183 -0.00012884 0.00001526
0.86920893 0.60190910 0.87754971 0.00013343 0.00006607 0.00016287
0.55721700 0.26484787 0.24385351 0.00010073 -0.00003459 -0.00001385
0.71454239 0.77587575 0.31910312 0.00002280 -0.00007347 -0.00004994
0.55309945 0.84160352 0.50536132 -0.00017093 -0.00000773 -0.00003725
0.87657279 0.39915267 0.55314654 0.00010044 -0.00015191 -0.00003804
0.54060864 0.76861560 0.59161001 -0.00007156 0.00006551 -0.00003340
0.10810803 0.38229352 0.40243188 -0.00005775 0.00019188 0.00014648
0.75626504 0.75423437 0.49814215 0.00001473 0.00003978 -0.00000751
0.65862817 0.58149743 0.18761382 0.00011321 0.00004064 -0.00015086
0.59171331 0.78056550 0.48369020 -0.00001674 -0.00003616 0.00000219
0.38742816 0.22164795 0.45667911 -0.00003571 -0.00010543 -0.00001569
0.69217604 0.76842594 0.68429667 0.00003972 0.00003914 -0.00000304
0.52755201 0.57086569 0.17034718 -0.00007785 0.00001751 -0.00015857
0.68806899 0.77002054 0.76267761 0.00002302 0.00010142 0.00016327
0.57602119 0.44308636 0.13580590 0.00000908 0.00007103 -0.00005185
0.43363646 0.61669856 0.38220751 -0.00010972 0.00002545 -0.00007193
0.49486732 0.66432470 0.68460846 -0.00009395 0.00006634 0.00003312
0.87216514 0.68924445 0.48913872 0.00002541 0.00002932 -0.00000444
0.66738325 0.41319948 0.30087364 0.00002412 -0.00004654 -0.00005525
0.90897852 0.61971819 0.72462726 0.00005972 -0.00000036 0.00004910
0.30881089 0.13217705 0.50437587 -0.00013082 -0.00028492 -0.00012652
0.62795371 0.29736212 0.69985777 -0.00004587 -0.00016110 0.00006650
0.45642793 0.44000325 0.13777021 -0.00012977 0.00002289 -0.00016126
0.59201467 0.28762648 0.58931935 -0.00006347 -0.00013700 -0.00001678
0.57167941 0.34836629 0.39032042 -0.00002931 -0.00006403 -0.00004710
0.06533407 0.28428295 0.37337285 0.00006245 -0.00031671 0.00003599
0.83219057 0.70886922 0.27547240 0.00010385 -0.00008239 -0.00020707
0.77145720 0.52853137 0.36893544 0.00004123 -0.00002408 -0.00000566
0.50523794 0.36367181 0.62882614 -0.00010048 -0.00004344 0.00001471
0.45173335 0.63594240 0.53650761 -0.00008787 0.00000570 -0.00005655
0.80135691 0.45982975 0.80751634 0.00004272 -0.00001760 0.00009802
0.82090288 0.72021228 0.48872805 0.00003929 0.00005134 -0.00000955
0.41959283 0.57531190 0.29968491 -0.00014181 0.00003280 -0.00003033
0.53398907 0.60874808 0.18463759 0.00000773 0.00012818 -0.00013342
0.67834783 0.82938039 0.35300544 0.00003752 0.00011195 -0.00002279
0.50640410 0.38085002 0.68377507 -0.00013311 -0.00010533 0.00004399
0.37471387 0.42333221 0.23012090 -0.00013520 -0.00000302 -0.00000789
0.64917868 0.61793798 0.82525319 -0.00004120 -0.00000010 0.00012747
0.76805979 0.56532151 0.33214933 0.00005655 0.00001299 -0.00006995
0.66803831 0.36708766 0.19676995 0.00013903 -0.00000893 0.00002359
0.39482653 0.45016566 0.31644276 -0.00007562 -0.00000588 0.00000763
0.70770258 0.75972146 0.65759343 0.00002265 0.00004596 0.00000950
0.44863737 0.56833953 0.50709414 -0.00007113 0.00000346 0.00001368
0.55045599 0.32541165 0.68261766 -0.00010730 -0.00011453 0.00007871
0.84427637 0.54579556 0.43444541 -0.00001473 0.00003457 -0.00007989
0.59508657 0.40175271 0.09730621 0.00007035 0.00002279 -0.00026121
0.75680351 0.35706028 0.49515226 0.00008586 -0.00000778 -0.00005198
0.51104730 0.25156936 0.29527563 0.00006443 -0.00003805 0.00006496
0.72926193 0.30102554 0.56524676 0.00003135 -0.00014278 -0.00003570
0.36390287 0.18623301 0.40448943 -0.00003081 -0.00019464 -0.00007777
0.90978307 0.56924129 0.82703424 0.00018252 -0.00001662 0.00007913
0.53119129 0.44660029 0.13792855 0.00003667 0.00004927 -0.00007144
0.93237126 0.55814332 0.52566683 0.00009435 -0.00009345 -0.00003705
0.41162941 0.42215151 0.16635022 -0.00012693 0.00004727 -0.00011405
0.84435427 0.70067513 0.30339575 0.00011053 -0.00013160 -0.00005281
0.55772579 0.46711722 0.78221083 -0.00010869 -0.00003081 0.00008955
0.59230804 0.78570783 0.46965784 -0.00003033 -0.00002335 -0.00000584
0.57349586 0.38753146 0.09238096 -0.00000498 -0.00001198 -0.00027649
0.72144562 0.36371279 0.44583917 0.00004578 -0.00007673 -0.00005111
0.42006299 0.53968555 0.27621424 -0.00011588 -0.00000539 -0.00006059
0.40193880 0.48060629 0.24399255 -0.00009929 0.00003824 -0.00004204
0.48725516 0.25904572 0.31472519 0.00003190 -0.00006025 0.00005249
0.84096980 0.73934120 0.39363259 0.00008771 0.00008022 -0.00000700
0.68386942 0.82492280 0.37739313 0.00002433 0.00010903 -0.00002840
0.72807801 0.75303280 0.33199662 -0.00004908 -0.00003471 -0.00000224
0.86860853 0.48000190 0.75389844 0.00007793 -0.00003536 0.00006564
0.78263474 0.74417168 0.47242427 -0.00000504 0.00001100 -0.00000367
0.38889337 0.46377528 0.27263200 -0.00009336 0.00004491 0.00000793
0.48527959 0.57047981 0.71815801 -0.00013716 0.00005506 0.00010110
0.71172690 0.30554736 0.52171403 0.00005268 -0.00012788 -0.00006379
0.60656065 0.28008667 0.62365729 -0.00005919 -0.00016953 0.00000772
0.54156911 0.31208009 0.32520348 -0.00000721 -0.00006209 0.00002124
0.53645819 0.40507534 0.74210769 -0.00012289 -0.00003587 0.00010835
0.39812022 0.21068582 0.38113451 0.00011525 -0.00013691 -0.00000744
0.54838800 0.51984137 0.77499324 -0.00009298 -0.00003387 0.00006507
0.86430138 0.39221883 0.63064092 0.00007261 -0.00007802 -0.00006538
0.88848084 0.53505284 0.78401351 0.00001879 -0.00005160 -0.00003409
0.51619923 0.64815193 0.72641957 -0.00012452 0.00004748 0.00008916
0.59977072 0.74444491 0.48473346 0.00000101 0.00000757 0.00004640
0.21928696 0.28899363 0.33614391 -0.00006782 -0.00012029 0.00007623
0.70498115 0.49303040 0.22962821 0.00006249 -0.00009554 -0.00013022
0.75104481 0.53685564 0.29767796 0.00007656 -0.00003537 -0.00004771
0.82433009 0.53249055 0.42514944 -0.00000412 0.00001518 -0.00006313
0.68980265 0.27736279 0.65957862 0.00000004 -0.00018978 -0.00000285
0.39733580 0.23541591 0.33580634 -0.00002400 -0.00014462 -0.00008744
0.77849066 0.74565858 0.47380427 -0.00000085 -0.00000332 0.00000273
0.60235715 0.80922431 0.41192877 -0.00008258 0.00000798 -0.00001009
0.79932588 0.66486961 0.34553877 0.00004336 0.00000662 -0.00005474
0.80851263 0.72707456 0.69520575 0.00001073 0.00007355 0.00001486
0.60147625 0.35010478 0.41984797 -0.00000274 -0.00005826 -0.00001699
0.93989015 0.67260391 0.46648389 0.00022411 -0.00003897 -0.00003251
0.72645211 0.47142926 0.30322132 0.00005911 -0.00004255 -0.00005088
0.78353894 0.34561029 0.72876805 0.00008576 -0.00012357 0.00005548
0.45769626 0.56095886 0.66756856 -0.00015932 -0.00005953 0.00002739
0.65452671 0.80756778 0.47768390 0.00000202 0.00002044 0.00001384
0.28985563 0.34037557 0.27464780 -0.00008505 0.00000638 -0.00000356
0.67613995 0.65788352 0.26124874 0.00005853 0.00005221 -0.00006431
0.57843000 0.31065908 0.52261984 -0.00005601 -0.00009531 -0.00002791
0.51526290 0.70457888 0.34281892 -0.00002116 0.00011705 -0.00002950
0.75929672 0.64930850 0.86781973 -0.00007301 0.00008369 0.00014036
0.22561316 0.33829552 0.29864326 -0.00007936 0.00004450 -0.00006627
0.69538295 0.73806810 0.36166084 0.00000774 -0.00002396 -0.00004966
0.59393644 0.51982933 0.81933844 -0.00009549 0.00000483 0.00013559
0.87939072 0.47224745 0.46359044 0.00011333 -0.00001572 -0.00007504
0.93309379 0.53075451 0.57569283 0.00009617 -0.00002193 0.00001628
0.83274990 0.71116072 0.71326244 0.00005218 0.00004276 0.00003591
0.13235264 0.37785691 0.36824587 -0.00010590 -0.00008334 -0.00013865
0.46522960 0.23653550 0.22831088 -0.00004954 -0.00018105 -0.00004243
0.47383761 0.48238575 0.64240766 -0.00009411 0.00002947 0.00005777
0.43766475 0.47412097 0.48955667 -0.00008584 -0.00002976 0.00000747
0.70966852 0.41710165 0.82175297 0.00004275 -0.00006248 0.00014741
0.55007666 0.35028398 0.42349935 -0.00001389 -0.00006446 -0.00002287
0.54179180 0.34052828 0.69073457 -0.00010552 -0.00009350 0.00007144
0.41389674 0.38515720 0.36345318 -0.00004303 -0.00003279 0.00000638
0.56888962 0.38823795 0.09314047 -0.00005444 -0.00000828 -0.00026077
0.90540117 0.53482133 0.47791457 0.00011585 -0.00007210 -0.00009171
0.38520423 0.45455402 0.28211528 -0.00009879 0.00002279 0.00000361
0.56422400 0.34773055 0.40872350 -0.00001134 -0.00006812 -0.00001891
0.86937934 0.70617348 0.44290873 0.00002050 0.00002484 0.00004843
0.69889283 0.73036993 0.36640128 0.00000987 -0.00001740 -0.00005642
0.72542495 0.80605674 0.32990611 0.00006052 0.00009415 -0.00004358
0.49354678 0.72200632 0.57646286 -0.00007613 0.00008919 -0.00003750
0.70130086 0.45990127 0.26745275 0.00002344 -0.00010147 -0.00002620
0.49330327 0.37289065 0.61093825 -0.00010912 -0.00005492 0.00004665
0.79447776 0.43882740 0.80192322 0.00004685 -0.00004695 0.00010964
0.61313438 0.80505377 0.66066605 -0.00009969 0.00004804 0.00004672
0.45819935 0.58962560 0.52392113 -0.00003539 0.00001881 0.00001641
0.91861451 0.65539116 0.69409013 0.00009832 0.00005384 0.00007661
0.54439020 0.71628851 0.70329690 -0.00009652 0.00006329 0.00006628
0.62401295 0.73860741 0.75948036 -0.00002807 0.00011260 0.00008161
0.42663592 0.49622205 0.46158755 -0.00009391 -0.00002777 0.00000334
0.36209527 0.32222483 0.20114468 -0.00016600 0.00000947 -0.00011519
0.54734397 0.57023633 0.16291827 -0.00005412 0.00000766 -0.00020579
0.72912049 0.69999278 0.78974414 0.00004345 0.00002779 0.00004094
0.87829840 0.52292693 0.79422903 0.00001933 -0.00005686 -0.00002347
0.89338368 0.46777952 0.48580885 0.00008313 -0.00008775 -0.00012610
0.44969666 0.68425566 0.58752626 -0.00016162 0.00010898 -0.00000809
0.62666047 0.83544296 0.60753363 0.00010064 0.00013616 -0.00000905
0.35224950 0.25432134 0.48399565 -0.00004882 0.00003799 0.00002784
0.73498940 0.79083890 0.39236271 0.00001454 0.00005601 0.00001120
0.67757863 0.68354034 0.31285650 0.00003022 0.00003629 -0.00000226
0.49531099 0.66327900 0.51282078 -0.00000760 0.00000474 -0.00005580
0.42425928 0.60023892 0.34861383 -0.00013307 0.00003493 -0.00002932
0.86415106 0.72060055 0.34947947 0.00017798 -0.00001748 -0.00004338
0.86447340 0.66305155 0.82132208 0.00010014 0.00010169 0.00007633
0.09105036 0.33630386 0.37756592 -0.00012465 0.00003614 -0.00006924
0.44435745 0.57797384 0.47947302 -0.00008060 0.00001429 0.00000995
0.48391083 0.23416129 0.21627659 -0.00002303 -0.00018899 -0.00006895
0.38289350 0.32569778 0.16752850 -0.00021996 0.00001197 -0.00007099
0.35084459 0.26555434 0.39357954 -0.00007758 0.00001573 -0.00000446
0.76876467 0.41019678 0.43781629 -0.00000729 -0.00003643 -0.00002335
0.63803655 0.40073922 0.22533868 0.00001891 -0.00002172 -0.00001087
0.85202515 0.71243775 0.43335074 0.00000961 0.00001845 0.00000957
0.34093857 0.24629284 0.48610219 -0.00006013 0.00004178 0.00002410
0.49461254 0.51625192 0.18034805 -0.00004296 -0.00007545 -0.00009212
0.47902653 0.28172144 0.32696927 0.00001865 -0.00002645 0.00001604
0.55062717 0.28239980 0.26930937 0.00004126 -0.00007070 -0.00003325
0.25412080 0.34697905 0.29377586 -0.00006564 0.00000531 -0.00005891
0.60978281 0.29256383 0.53448141 -0.00007576 -0.00011888 -0.00004203
0.62459004 0.83603448 0.61547369 0.00003879 0.00018233 -0.00000771
0.55231667 0.30798829 0.62539178 -0.00008228 -0.00013083 -0.00001562
0.64681250 0.73955822 0.35532984 0.00000347 0.00000414 -0.00003289
0.61043549 0.29467201 0.13415985 0.00014440 -0.00016168 -0.00018482
0.45939454 0.64244217 0.65559286 -0.00009969 0.00005856 0.00006154
0.78497684 0.73359853 0.75892574 0.00001334 0.00011510 0.00006213
0.54465789 0.35053959 0.47284704 -0.00003003 -0.00004899 -0.00003932
0.38044533 0.29915929 0.18570654 -0.00014993 -0.00014822 -0.00005620
0.13657950 0.35850057 0.35779166 -0.00009862 0.00000755 -0.00007265
0.14744437 0.33891279 0.33800453 -0.00010141 0.00001771 -0.00005908
0.88281775 0.55528206 0.45309046 0.00005066 -0.00000462 -0.00010655
0.68712622 0.78402644 0.75207877 0.00010225 0.00014469 0.00016645
0.82236010 0.60800862 0.89886713 0.00003061 0.00005717 0.00022520
0.83110231 0.68232751 0.82960612 0.00007952 0.00011839 0.00009693
0.81782627 0.73291373 0.65933913 0.00005587 0.00007879 0.00006016
0.49721104 0.71051848 0.55412066 -0.00004915 0.00006265 -0.00005209
0.55544561 0.26179770 0.14897427 0.00003997 -0.00019956 -0.00013686
