-0.051864 0.113305 0.007525
0.089763 0.368106 0.016634
-0.056684 -0.063154 0.015594
0.087512 -0.044981 0.018543
-0.059023 0.161632 0.017766
0.094076 -0.025615 0.011225
0.070059 -0.422150 0.021966
-0.055414 0.496073 -0.014598
-0.092331 -0.458681 -0.014360
0.053116 -0.256804 -0.010983
-0.070710 -0.491581 -0.023072
0.059809 -0.007111 -0.018904
0.052889 0.055693 0.010119
-0.054376 -0.018751 0.012684
-0.085791 0.475649 0.018134
-0.078385 0.500000 -0.022447
-0.068311 0.205229 -0.022905
0.097043 0.413339 0.000999
-0.074449 0.379963 0.023052
-0.052169 0.466097 0.008495
-0.096387 0.141804 0.005250
-0.089230 0.064814 0.017135
0.084646 -0.409145 0.020363
0.095318 -0.293731 0.008664
-0.082632 0.132275 -0.021824
0.096297 0.182317 -0.006185
-0.094286 -0.083300 -0.011348
0.074087 0.500000 0.011413
-0.087011 0.097160 0.018945
-0.090766 -0.203155 0.015651
-0.097063 0.308264 0.000463
0.052049 0.233662 0.008028
-0.088051 -0.005786 -0.018673
-0.057610 -0.165053 0.016453
0.053008 0.118464 -0.010743
0.055277 0.002051 0.013928
-0.054072 -0.279961 0.012200
-0.096771 -0.218748 -0.004213
-0.058623 -0.390110 0.017394
0.056916 -0.155815 0.015785
-0.096121 0.327751 0.006416
0.068401 0.293324 -0.022929
-0.095044 -0.378002 -0.009664
-0.096191 0.067032 0.006108
0.092392 -0.318221 -0.014215
0.082765 0.064298 -0.021755
0.053206 0.200094 -0.011182
-0.050742 0.407015 0.002995
0.092085 -0.216358 0.014086
-0.068835 -0.248454 -0.023062
-0.051540 0.461818 0.006623
-0.088070 0.467184 -0.018673
0.087143 0.125793 -0.019296
0.057968 -0.277504 0.016829
0.080186 0.018472 -0.022690
0.050466 0.474027 -0.000635
0.050488 0.302010 -0.000705
0.090428 -0.216471 -0.016503
-0.093640 -0.264002 0.011841
0.078976 -0.475890 -0.022988
-0.052869 0.272992 0.009942
-0.084575 0.153247 0.020364
-0.066762 -0.400939 -0.022440
0.091143 -0.422482 0.015312
-0.095688 -0.402786 0.007602
0.095469 -0.177410 0.008217
-0.079500 -0.028327 0.022343
0.092536 -0.030036 0.013582
-0.095178 -0.234857 -0.009367
0.054594 0.492753 0.012984
-0.072787 0.229461 -0.023072
0.096848 0.421646 -0.003291
0.083203 0.189353 0.021005
-0.090938 0.431801 0.015451
-0.078255 -0.008077 0.022637
0.097102 -0.023225 0.000363
-0.076753 0.423498 -0.023072
0.096647 -0.460255 -0.004739
-0.070528 0.292822 -0.023072
-0.076134 0.299511 0.022923
0.091636 -0.354792 -0.015268
0.054917 0.210262 0.013462
-0.053289 -0.131019 -0.011288
-0.082593 0.227067 -0.021843
-0.061549 -0.243625 0.019527
0.059575 -0.217050 0.018164
0.052281 0.047757 -0.009128
-0.089768 -0.500000 -0.013928
-0.090694 0.274399 -0.016212
0.058360 0.014231 0.017222
0.096791 -0.431700 -0.003701
-0.050514 0.241134 0.000303
0.054245 -0.488649 -0.012990
0.050672 -0.126928 0.002743
-0.076582 -0.080048 -0.023072
-0.063495 -0.442473 0.020510
-0.078333 -0.349989 -0.023072
-0.090735 0.392258 -0.016170
0.089057 0.111964 -0.017861
-0.089756 -0.395655 -0.017184
0.096231 -0.043932 -0.006402
0.051985 -0.341074 -0.008470
0.067383 -0.481848 -0.022688
-0.075681 -0.325382 -0.023072
-0.087577 0.459094 -0.018995
-0.065473 0.167655 0.021498
0.093982 0.383452 0.011285
0.050584 -0.201342 -0.001856
-0.057638 -0.106235 0.016479
-0.069146 0.500000 0.007544
0.070553 -0.125901 -0.023072
0.090168 0.282496 0.016257
-0.091100 0.230941 0.015263
0.055967 0.330930 -0.015273
0.094067 0.163280 -0.011717
0.075811 0.388827 0.022981
0.093309 0.374241 -0.012937
-0.056251 0.176645 -0.015623
0.062056 0.363011 0.019819
0.056172 0.434151 -0.015485
-0.064108 0.190544 0.020891
0.095590 -0.260820 -0.008501
-0.068061 -0.014659 -0.022864
0.071058 -0.062380 -0.023072
-0.086411 0.346198 0.019295
-0.057976 -0.023406 0.016896
0.065660 -0.014561 -0.022119
0.095706 0.037621 0.007581
-0.056838 0.216983 -0.016205
-0.097010 -0.271191 -0.001527
-0.089257 0.118251 -0.017702
-0.074373 0.377801 -0.023072
0.052575 0.295765 -0.009781
-0.050843 -0.354956 -0.004189
0.056854 0.140354 -0.016193
0.095210 0.045098 0.008980
-0.056917 -0.247886 -0.016284
-0.076116 -0.177802 -0.023072
0.096898 -0.470714 0.002814
0.095975 -0.096467 -0.007243
-0.091584 -0.067195 -0.015289
0.050668 -0.027526 0.002845
0.095812 -0.091506 0.007202
0.066039 0.282281 0.021673
0.076703 0.165092 -0.023072
-0.067171 0.205674 0.022053
0.068113 -0.267414 0.022322
-0.069112 0.277830 0.022568
-0.050562 0.016744 0.001970
0.097065 0.451265 -0.000626
-0.096937 -0.415142 0.002173
-0.051825 0.104462 0.007409
-0.096815 0.076770 -0.003861
0.084825 -0.143070 0.020284
0.071130 -0.114402 0.022908
0.062821 -0.049985 0.020264
0.053781 -0.035666 -0.012237
-0.089978 0.195757 0.016513
0.091541 0.141169 0.014795
0.092242 -0.034243 -0.014483
0.092122 0.242523 0.014038
0.097111 0.010946 -0.000187
-0.052139 -0.414705 -0.008952
0.073623 -0.092298 0.023030
0.091221 0.352759 0.015210
-0.064452 0.200163 -0.021586
-0.056081 -0.089440 -0.015455
-0.095316 0.082457 -0.009062
-0.096812 0.445872 -0.003899
0.085978 0.077316 0.019552
0.055400 -0.343681 -0.014575
-0.063517 -0.046697 0.020628
0.073806 -0.109013 0.023039
0.060757 -0.406040 -0.019533
-0.082802 0.049881 0.021190
-0.053490 -0.125474 0.011108
0.050869 0.306153 0.003885
0.071539 -0.288235 -0.023072
-0.050588 0.110427 0.002072
-0.061920 0.041892 0.019777
0.094376 -0.392617 0.010546
-0.090015 0.056368 -0.016916
0.052779 -0.028861 0.009876
-0.053695 -0.310921 0.011493
-0.071964 0.500000 -0.001927
-0.096833 0.029944 -0.003808
0.094178 0.355469 0.010918
-0.097083 0.314157 -0.000649
-0.096560 0.042492 -0.005079
0.050597 0.077580 0.001722
0.090251 0.478122 0.016244
0.095299 0.062000 0.008722
0.072763 -0.370396 -0.023072
-0.054247 -0.425314 0.012482
-0.093230 0.277969 0.012517
0.075555 0.064027 -0.023072
0.094721 0.204936 -0.010387
0.069928 -0.395589 0.022735
0.051638 0.448501 -0.007485
-0.074897 0.254908 0.022983
0.079299 -0.276177 0.022344
0.095206 0.176188 -0.009402
-0.092901 -0.438516 -0.013490
0.050580 -0.297274 0.001494
-0.050502 0.348605 -0.000540
0.091661 -0.070773 -0.015233
-0.069856 -0.209441 0.022720
-0.051647 -0.378822 0.006881
0.075668 0.330447 -0.023072
-0.056559 0.058111 -0.015929
-0.084137 0.395624 0.020619
0.095984 0.486309 -0.007411
-0.089928 -0.334128 -0.017006
0.096831 -0.362964 -0.003409
-0.092504 -0.329744 0.013631
0.094513 -0.359978 -0.010811
0.097043 0.088302 0.000952
-0.050497 0.066111 -0.000898
0.081758 -0.263575 -0.022154
0.096928 -0.326630 0.002378
0.053365 -0.315826 0.010912
-0.054534 0.459576 -0.013342
0.052243 -0.379807 0.008511
0.051515 0.110194 -0.007008
-0.061182 0.117397 0.019285
0.095869 -0.027434 0.007210
0.053768 -0.270999 0.011578
0.074582 0.415899 -0.023072
-0.058206 0.298232 0.017008
0.053666 -0.482175 -0.012049
0.074946 0.343075 -0.023072
0.076426 -0.452627 0.019783
-0.054346 0.449836 -0.013061
0.096760 -0.476058 -0.003927
0.059787 0.478363 0.017939
0.095759 -0.184870 0.007359
-0.050504 0.310836 -0.000419
0.059376 -0.061877 0.017999
-0.085513 -0.029010 0.019879
-0.092857 -0.321408 -0.013555
-0.097038 -0.296182 0.000802
0.050474 0.457648 0.000049
-0.071927 -0.318913 -0.023072
0.084825 0.388160 -0.020757
0.054438 -0.038822 0.012718
0.067943 0.320864 -0.022791
0.085920 -0.153242 0.019591
-0.068682 -0.033445 -0.023016
0.096653 0.245829 0.004030
-0.089579 -0.217177 -0.017368
0.084052 -0.294436 -0.021132
0.051240 0.500000 0.003717
-0.054907 0.005883 -0.013938
0.065628 -0.038893 -0.022108
-0.081555 -0.035953 0.021691
-0.054364 0.396146 -0.013085
-0.095070 0.142724 -0.009606
0.061178 -0.212241 0.019308
0.088427 0.480405 -0.018412
-0.091944 0.215518 -0.014903
-0.052058 0.253964 -0.008768
-0.096898 0.329327 -0.002876
0.080960 0.181176 0.021903
0.052878 -0.316135 -0.010454
0.057596 0.021811 -0.017036
0.081773 -0.194100 0.021640
-0.094166 0.181944 -0.011614
0.095325 -0.484792 -0.009198
-0.095851 -0.486670 0.007267
0.056496 0.084935 0.015297
-0.050807 0.173256 0.003384
0.055367 0.500000 -0.006127
-0.096061 0.093183 0.006673
0.076949 0.313012 -0.023072
-0.094793 0.210818 -0.010222
-0.072547 0.022153 -0.023072
0.082799 -0.345947 0.021184
0.073479 -0.317379 -0.023072
0.080967 0.083309 0.021901
-0.066886 -0.476914 0.018043
0.067268 -0.488126 -0.022658
-0.062607 -0.338217 -0.020691
-0.089249 -0.454283 -0.017710
-0.052192 0.430955 0.008498
-0.065014 -0.166275 -0.021858
-0.084908 -0.422119 -0.020697
-0.058028 0.207679 -0.017385
-0.080319 -0.100169 0.022131
0.095200 0.060028 -0.009413
0.073841 0.080237 0.023041
-0.051008 -0.286266 -0.005328
-0.094239 0.405346 -0.011453
0.088025 0.379130 -0.018674
-0.090673 -0.185098 -0.016234
-0.088581 0.071373 -0.018240
0.050708 -0.046922 -0.003336
0.050569 0.186171 -0.001674
0.097054 -0.231508 0.000189
0.088667 -0.464028 0.017688
0.089740 0.498185 -0.017185
-0.074338 -0.494314 -0.023072
0.069243 -0.455374 -0.023072
0.091376 -0.079821 -0.015564
0.050537 0.145719 -0.001293
-0.082118 -0.204164 0.021449
-0.052628 -0.104630 0.009489
0.091236 0.213755 0.015190
0.094830 -0.451104 0.009693
0.097056 -0.370420 0.000085
0.088681 -0.222417 0.017639
0.053986 0.322818 -0.012485
0.052115 0.004160 0.008389
-0.062349 0.139933 0.020053
0.085927 -0.180435 0.019586
-0.052015 0.320935 0.007973
-0.070186 -0.173959 -0.023072
-0.065616 0.357191 -0.022096
0.052107 -0.059299 0.008170
0.069186 0.195824 -0.023072
-0.054657 0.099678 0.013015
0.052767 0.289263 -0.010207
-0.057095 -0.281629 0.015976
-0.050524 -0.278841 0.001039
-0.096918 -0.066081 0.002427
-0.096292 0.284170 -0.006075
-0.094170 0.086152 -0.011606
0.065962 -0.406847 0.021645
-0.097095 -0.143499 0.000021
0.074517 0.479170 0.017881
-0.087037 -0.239881 -0.019367
-0.072431 -0.302758 0.022986
-0.069053 0.396638 -0.023072
0.097065 0.160458 -0.000584
0.067932 0.393484 -0.022788
-0.093942 0.110398 -0.011950
-0.082409 0.471441 0.018435
0.097047 -0.297033 0.000664
-0.091225 -0.047532 -0.015661
0.080147 -0.087028 0.022119
0.063710 -0.021958 0.020784
-0.088797 -0.371242 0.017495
-0.053240 -0.175556 0.010638
0.056293 -0.193152 0.015061
-0.093179 -0.056763 0.012602
-0.094841 0.149435 -0.010115
-0.096686 0.117295 -0.004544
-0.054107 0.371326 0.012265
0.095761 -0.209437 0.007351
0.056278 -0.142612 0.015044
-0.093759 0.272387 -0.012221
-0.070562 -0.117165 0.022793
0.096492 -0.073745 0.004993
-0.051980 -0.073335 -0.008514
0.051167 0.346150 0.005195
-0.079713 -0.474435 -0.022809
0.080174 0.157302 0.022112
0.073079 0.349727 -0.023072
-0.096366 -0.295731 -0.005788
0.078661 -0.225871 -0.023072
-0.077017 0.179843 0.022820
0.090361 0.379981 0.016078
0.058233 -0.032478 0.017102
-0.060783 0.413632 -0.019549
-0.093264 -0.089719 0.012461
0.054531 -0.084369 0.012839
-0.092663 -0.152219 -0.013841
-0.084102 -0.152091 -0.021096
0.096686 -0.434935 0.003831
-0.060190 -0.083176 -0.019132
0.064697 0.178939 0.021164
0.050672 -0.405475 0.002744
0.068459 -0.333493 -0.022947
0.060708 0.464154 -0.019543
-0.075864 0.274626 -0.023072
-0.096968 -0.370341 0.001743
0.051667 0.040539 0.007102
0.080582 0.104234 -0.022507
-0.051946 -0.036702 -0.008455
-0.077038 -0.186368 -0.023072
-0.054674 -0.402655 0.013037
0.095883 0.103620 -0.007542
0.050904 0.474675 0.004232
0.087686 -0.498240 0.016515
-0.077212 -0.420567 0.022079
-0.050514 0.461346 0.001281
0.074200 0.155378 0.023058
0.084583 -0.342707 -0.020874
0.053978 -0.033751 0.011993
-0.065650 0.290060 0.021576
0.080028 -0.500000 0.001735
-0.058987 -0.237455 -0.018283
-0.089132 0.011792 0.017290
0.076069 0.439857 -0.023072
0.050502 0.403754 0.000428
-0.050930 -0.269095 0.004125
0.097038 -0.461109 0.001632
-0.088256 0.339719 0.017944
0.060434 -0.500000 -0.001487
0.070889 0.474257 0.018233
0.093661 0.274417 0.011887
0.096573 0.265590 -0.005274
-0.088572 0.191477 0.017682
0.050565 0.464768 -0.001758
0.076474 -0.096579 0.022847
-0.078412 -0.363646 -0.023072
0.094121 0.332168 -0.011607
0.075154 -0.111114 -0.023072
0.057453 -0.099308 0.016401
-0.052624 0.047967 -0.009937
0.054481 0.237878 -0.013217
-0.052214 0.400001 0.008561
0.051950 0.186681 -0.008394
-0.051081 -0.175643 0.005032
0.056473 -0.259055 -0.015797
-0.058176 0.467323 -0.017531
-0.068531 0.237040 0.022414
-0.084234 -0.212799 0.020562
0.060438 -0.070784 0.018877
-0.081354 -0.418171 -0.022268
0.077037 -0.417943 0.022267
0.076360 -0.251287 0.022859
0.064730 -0.179040 0.021177
-0.055997 -0.082438 -0.015361
-0.083252 -0.500000 -0.015785
0.070666 0.449543 0.020004
0.054238 -0.368996 -0.012856
-0.061787 -0.437536 0.019693
0.097060 -0.423606 -0.000261
-0.091988 -0.155823 0.014230
-0.091448 -0.148381 0.014858
-0.085905 -0.417936 0.019589
-0.093681 -0.138876 0.011772
-0.060809 0.419004 0.019040
-0.069024 0.259214 0.022545
-0.086962 0.455937 0.018985
0.086145 0.399792 -0.020000
0.055239 -0.102677 -0.014337
-0.054495 0.113973 0.012804
0.096236 0.188386 0.005945
-0.051191 0.435717 0.005530
-0.085303 -0.316925 0.019940
0.095498 -0.188148 -0.008804
0.093333 -0.464741 -0.012956
-0.095203 0.091093 -0.009312
0.056615 0.116297 0.015435
0.053833 -0.223568 0.011686
-0.053045 0.079275 -0.010792
0.062966 -0.183950 0.020349
-0.050506 0.131958 -0.000281
0.076396 0.307776 -0.023072
0.083720 0.460818 0.019196
0.057915 0.170026 0.016785
0.079895 -0.443660 -0.022713
-0.072921 0.054863 -0.023072
-0.092423 -0.141038 -0.014196
-0.096851 0.375706 -0.003436
-0.074046 -0.295083 -0.023072
-0.056895 -0.481706 0.015829
-0.073419 0.369398 0.023064
-0.093337 0.134803 -0.012844
-0.068244 -0.078462 0.022338
-0.057539 0.431534 0.016388
0.050595 0.442771 -0.001984
0.085340 -0.414897 0.019973
0.076060 0.015432 0.022890
0.051958 -0.336732 0.007800
-0.087793 -0.135314 -0.018816
0.060894 0.050560 0.019142
-0.091277 0.210783 -0.015608
-0.092899 0.160056 -0.013493
-0.095488 0.228930 0.008100
0.050967 0.046137 -0.004882
-0.059814 -0.355867 -0.018867
0.051717 -0.403545 0.007199
-0.088515 0.390469 0.017729
-0.058379 -0.044934 -0.017732
-0.082671 -0.293104 0.021239
-0.056871 -0.142623 -0.016238
-0.086188 -0.385300 -0.019987
-0.052908 0.258097 -0.010515
-0.053625 -0.460093 0.011389
0.051144 0.479155 -0.005876
-0.080107 -0.242855 -0.022645
0.066887 0.265138 -0.022472
0.083987 0.194727 -0.021163
-0.050794 -0.225469 0.003308
-0.051287 -0.413237 0.005814
-0.094102 0.235526 -0.011713
0.097002 -0.449454 -0.002175
-0.067363 0.224926 -0.022620
-0.066715 -0.431956 -0.022426
-0.096909 -0.259558 -0.002735
-0.097036 0.497925 -0.001399
0.081240 0.500000 -0.001336
-0.050496 -0.381853 -0.000980
0.095206 0.127154 0.008988
-0.063453 -0.231502 -0.021102
0.053488 0.287366 0.011116
0.074764 0.374434 0.023040
0.075593 0.088525 0.022938
0.096382 0.111643 -0.005909
0.078799 0.458654 -0.023042
0.088013 -0.103443 -0.018683
0.095988 -0.424547 0.006678
0.062567 0.165769 -0.020652
-0.085465 0.364381 -0.020421
0.069989 0.108339 -0.023072
-0.083594 0.368702 0.020890
-0.061590 -0.457885 -0.020125
-0.097001 0.382711 -0.001636
-0.057496 0.134931 0.016348
-0.094116 0.225395 0.011054
-0.050808 -0.135817 -0.003933
-0.069327 0.047069 0.022625
0.050506 0.118195 0.000491
0.063324 0.449778 0.019987
0.096666 0.402760 -0.004603
0.096583 -0.420424 0.004447
-0.096984 0.334329 -0.001837
0.094078 0.258607 0.011104
0.094030 0.388537 -0.011792
0.083970 -0.007594 0.020707
-0.095800 -0.107729 -0.007985
-0.055394 -0.052130 0.013973
-0.054369 0.170339 0.012641
-0.096869 0.197196 -0.003222
0.080397 -0.451680 -0.022562
-0.051532 -0.061491 0.006540
0.095596 0.342397 -0.008481
0.068648 -0.422019 -0.023004
0.076921 0.053502 -0.023072
0.091250 -0.027819 -0.015714
0.087976 0.286206 -0.018709
-0.096910 0.419329 -0.002729
-0.090556 0.403466 0.015896
-0.093963 0.158585 0.011306
-0.050509 0.383992 -0.000035
0.081183 -0.390727 0.021858
-0.095834 -0.138395 -0.007853
0.091474 0.362275 0.014882
0.052224 -0.491303 0.008624
0.053904 0.255551 -0.012363
0.090915 -0.150929 0.015564
-0.096926 0.061998 -0.002532
-0.068354 -0.468131 -0.022918
-0.089664 0.366274 0.016775
-0.082421 -0.013086 0.021400
-0.085851 0.122435 -0.020230
-0.079950 -0.206732 -0.022692
-0.093061 0.309028 -0.013253
0.095926 0.025060 -0.007578
0.056431 0.320138 -0.015755
-0.091995 0.473313 0.014222
-0.093923 0.458901 0.011390
0.070422 0.481546 0.017711
0.064368 0.073089 -0.021543
-0.053024 -0.131608 0.010234
0.079704 -0.185724 0.022237
-0.078628 0.106459 0.022491
0.096089 -0.490047 0.006535
-0.093955 -0.165004 0.011320
0.066263 0.343961 0.021758
0.095708 -0.457786 0.007522
0.072657 -0.384982 -0.023072
-0.076345 -0.388576 -0.023072
0.057968 -0.002515 -0.017397
-0.073342 0.367676 -0.023072
-0.096862 -0.175594 -0.003297
0.060517 0.498111 0.016525
-0.084153 0.112713 -0.021071
-0.053161 -0.296536 -0.011028
-0.076041 0.117661 -0.023072
0.096776 -0.038290 0.003393
0.053300 0.456889 0.010808
0.056042 0.129819 0.014769
0.064244 -0.063118 -0.021482
0.074440 -0.047919 0.023058
0.052171 -0.147723 -0.008883
0.088416 0.412572 0.017884
0.058614 0.139146 0.017366
0.085312 -0.101599 0.019990
0.061167 -0.498910 0.016467
-0.096858 -0.336767 0.003184
0.069602 0.060468 -0.023072
-0.091456 0.467643 -0.015422
0.074516 0.084551 -0.023072
-0.077617 -0.407686 -0.023072
0.071030 0.163666 -0.023072
-0.050532 -0.187885 0.001607
-0.086088 0.400168 0.019483
-0.053546 0.277624 0.011214
-0.092015 0.368614 -0.014799
-0.096826 -0.110419 -0.003728
-0.076820 0.350916 0.022860
-0.085273 -0.270589 0.019957
-0.055117 -0.248419 0.013613
0.060437 0.210009 -0.019300
-0.087088 0.299819 -0.019330
-0.068648 -0.298934 0.022445
-0.051723 -0.482154 0.007330
-0.054057 -0.103583 -0.012657
0.097069 -0.391789 -0.000865
0.067587 -0.013574 0.022226
0.061634 0.378214 0.019573
-0.050983 0.285841 0.004445
0.097035 0.203740 0.001550
0.087508 -0.014870 -0.019118
0.089959 -0.053639 -0.016968
0.067311 -0.110109 0.022155
0.068363 -0.331537 0.022373
-0.097056 -0.118287 -0.000979
-0.092295 0.316638 0.013874
0.073722 0.355074 0.023056
-0.076550 -0.138007 0.022902
0.095361 -0.280115 0.008537
-0.055658 -0.176726 0.014316
-0.066671 -0.110218 -0.022413
-0.050970 -0.230497 0.004365
0.071665 0.359282 0.022961
0.089485 0.140415 -0.017438
-0.073484 0.113124 -0.023072
-0.071964 -0.314180 -0.023072
0.083886 0.366057 -0.021212
-0.077945 0.019383 0.022685
-0.065721 0.351906 -0.022127
0.051506 0.176691 0.006675
0.096377 0.180392 0.005524
-0.080021 -0.003989 0.022152
0.071614 -0.258603 -0.023072
-0.060335 -0.338688 0.018728
-0.089561 0.496183 -0.017386
-0.051880 -0.200393 -0.008185
-0.094596 0.134031 0.010262
-0.090522 0.355497 0.015935
-0.056900 0.234580 -0.016267
0.058292 0.199400 0.017098
-0.096936 0.360393 -0.002411
-0.051094 0.163648 0.005109
0.050989 -0.277759 0.004413
0.075560 0.442345 0.020519
0.088385 -0.151547 -0.018420
0.067258 0.090893 0.022135
0.085498 0.282400 -0.020431
0.055714 0.109786 -0.015011
0.097066 0.128575 -0.000664
0.078887 -0.346516 -0.023015
0.067429 0.158244 0.022183
-0.052906 -0.455196 -0.010510
-0.094943 0.249587 -0.009889
0.059134 0.083954 -0.018349
0.096800 -0.216904 0.003145
0.051152 -0.088468 -0.005600
-0.084690 -0.095434 0.020297
0.079138 -0.191426 -0.022940
0.097051 0.401720 0.000398
-0.074788 0.001651 -0.023072
-0.073470 -0.473099 -0.023072
0.091387 -0.025603 0.015032
-0.067450 -0.013549 0.022185
0.095765 0.320044 -0.007930
-0.059031 -0.447508 0.017773
0.089252 -0.350474 0.017108
0.089966 0.313677 -0.016960
0.067015 0.499643 0.016415
0.050937 -0.470079 0.004378
0.094050 -0.152339 0.011157
0.095080 -0.055024 0.009225
-0.068609 -0.230958 0.022435
-0.052343 -0.155834 0.008944
0.052383 0.302992 0.008858
-0.052711 -0.026670 -0.010252
0.051130 0.140569 -0.005515
-0.051027 -0.450449 0.004707
0.050590 0.351459 -0.001934
0.096194 -0.246591 0.006070
-0.096735 -0.370296 -0.004353
-0.078597 -0.484838 0.017475
-0.092492 0.017649 0.013675
0.092038 0.256209 -0.014708
0.081013 0.151865 -0.022377
0.070532 0.500000 0.007865
-0.066252 0.017844 0.021817
-0.075734 0.289935 0.022942
-0.095530 -0.062820 -0.008586
-0.066543 0.417114 0.021910
0.059554 -0.401452 -0.018655
-0.085279 -0.217029 -0.020513
0.074258 -0.166092 0.023061
0.050579 -0.229006 0.001480
-0.051665 -0.421631 0.006936
0.089164 -0.264085 0.017190
-0.051534 -0.151264 0.006547
-0.066132 -0.171322 -0.022251
0.067636 0.470140 -0.022735
-0.066377 0.094230 0.021842
0.077782 -0.466233 -0.023072
-0.054187 0.122724 0.012404
-0.091751 0.140228 0.014506
0.087332 -0.259887 0.018662
-0.050984 -0.077798 -0.005204
-0.053559 -0.066344 0.011238
0.052440 -0.115916 0.009001
0.062137 0.349302 -0.020439
-0.085133 -0.466231 -0.020624
0.068732 0.244569 -0.023030
0.071436 -0.072376 -0.023072
-0.069307 -0.184638 0.022620
0.053877 0.205996 0.011758
0.097046 0.263210 0.000799
0.050557 0.265853 -0.001536
-0.052694 0.366007 0.009614
0.063706 0.057814 -0.021215
-0.070220 -0.379518 -0.023072
-0.089375 0.191197 -0.017579
-0.066107 -0.096139 -0.022243
-0.089109 0.500000 -0.009671
0.095712 -0.446395 -0.008102
0.050534 -0.154038 0.000874
0.077436 -0.500000 -0.011765
0.050472 0.271554 0.000026
-0.066177 -0.019867 0.021794
-0.060650 -0.137114 -0.019456
0.057589 0.219413 0.016514
0.093643 0.235113 0.011921
0.097074 -0.475402 0.000908
-0.056070 -0.191325 0.014852
-0.086787 -0.399590 -0.019549
0.096210 -0.379361 0.006021
-0.051121 -0.191232 0.005275
-0.089522 -0.221184 0.016893
0.081976 0.136882 -0.022088
0.094149 -0.253180 -0.011550
0.095348 0.029107 0.008625
-0.056885 0.289342 -0.016252
0.088605 -0.017460 0.017752
0.092672 0.096655 -0.013825
0.058541 -0.307939 -0.017916
-0.077380 0.488325 -0.023072
-0.074124 0.218202 0.023021
0.096878 -0.055110 0.002675
-0.055323 -0.078655 0.013881
0.096758 0.252442 0.003395
0.093753 -0.277043 0.011716
0.079558 -0.399922 -0.022814
0.091023 -0.488827 -0.015914
-0.068992 0.336904 0.022536
0.095787 0.134663 -0.007858
0.052522 0.178259 -0.009663
0.073824 0.423800 0.021848
-0.083858 0.240300 -0.021217
0.052863 0.111364 0.010056
-0.075704 -0.356417 -0.023072
0.091975 -0.157963 -0.014795
-0.073746 0.158624 0.023040
-0.054874 -0.289084 -0.013796
-0.065719 -0.278373 -0.022127
-0.070309 -0.193662 -0.023072
0.084845 -0.173439 0.020275
-0.094449 0.299418 0.010504
-0.088704 -0.481186 -0.018178
0.093453 -0.307724 0.012278
0.096016 -0.314389 0.006596
-0.096767 0.245036 -0.004232
0.072824 -0.223165 -0.023072
0.054301 -0.239759 -0.012950
0.085017 0.033092 -0.020694
0.083412 -0.070056 0.020912
-0.074199 -0.190893 0.023018
-0.056580 -0.134524 -0.015949
-0.097093 0.486093 0.000366
-0.073114 0.408020 -0.023072
0.050661 -0.367273 -0.002782
0.083803 -0.090094 -0.021252
0.095980 0.165047 0.006703
-0.052094 0.128288 0.008206
-0.074686 0.180812 -0.023072
0.087851 0.254238 0.018321
-0.080116 -0.306883 -0.022642
0.053892 -0.286300 -0.012346
-0.093453 0.030352 -0.012776
0.091281 0.302297 0.015133
0.055600 -0.074760 0.014256
-0.078922 -0.455245 -0.023003
-0.091804 -0.251565 -0.015062
-0.097054 -0.237606 -0.000999
0.081701 0.303124 0.021672
0.059992 0.164553 0.018511
-0.061099 0.391967 0.019230
0.066286 0.174108 -0.022290
0.050662 -0.194461 0.002607
-0.088170 -0.141519 -0.018540
0.084841 -0.059694 -0.020749
0.092036 -0.222947 -0.014712
0.053243 0.088173 0.010712
-0.051986 0.240061 0.007886
-0.066469 0.464334 0.018944
-0.060251 0.173114 0.018673
-0.051502 -0.148073 -0.006946
-0.062051 -0.459019 0.019325
0.060499 0.353977 0.018912
0.053093 0.404068 -0.010931
-0.060658 -0.422304 0.018941
0.083476 0.459495 -0.021410
-0.096795 0.352425 -0.004099
-0.096201 -0.397610 -0.006427
-0.087722 -0.411406 -0.018867
-0.057123 0.128409 0.016002
0.095423 -0.467264 0.008429
0.058397 -0.111707 -0.017792
-0.064200 0.379873 0.020932
0.075281 0.133471 0.022971
0.064854 0.038428 0.021243
0.063168 -0.366365 -0.020949
0.053202 0.081312 -0.011172
0.083694 0.345814 0.020786
0.093228 0.040594 0.012619
-0.072589 0.047150 -0.023072
-0.077904 -0.500000 -0.018735
-0.097092 0.032984 0.000087
-0.096391 -0.303834 0.005230
-0.093536 -0.364364 0.012013
0.088727 0.452398 -0.018179
-0.054544 0.259565 0.012868
0.053323 -0.211216 -0.011441
-0.084336 0.454980 -0.020982
-0.050566 0.179389 0.001942
0.084689 0.118669 0.020344
-0.087928 0.071332 0.018217
-0.095093 -0.458879 -0.009595
0.062015 -0.311798 -0.020378
-0.090527 0.087012 -0.016385
0.058984 -0.345771 0.017673
-0.058548 -0.021538 -0.017920
-0.077129 -0.145676 -0.023072
-0.050889 -0.121945 -0.004519
-0.059832 0.254798 -0.018879
-0.051268 -0.025027 -0.006328
-0.054942 -0.403213 -0.013891
-0.050817 0.151829 0.003449
-0.053880 0.345558 0.011839
-0.053882 -0.039213 -0.012431
-0.091601 -0.423616 0.014680
-0.095042 0.125200 0.009213
0.070095 0.436987 -0.023072
-0.050523 0.119965 0.000958
-0.096906 0.206089 0.002592
-0.079674 0.226385 0.022278
-0.088248 0.227893 -0.018484
0.050464 0.178127 -0.000085
0.054864 -0.231170 0.013388
0.067074 0.017980 0.022077
0.056089 0.448101 0.014823
-0.088879 0.337786 -0.018023
0.052331 -0.200191 0.008730
0.071665 0.118933 0.022934
-0.096635 0.131708 0.004161
-0.054141 -0.292024 0.012330
0.083221 0.450004 0.019971
-0.053406 0.092353 0.010950
-0.094258 0.118090 0.010820
-0.060370 0.445167 0.018778
-0.091027 -0.410033 -0.015866
0.074408 -0.118122 0.023061
-0.064450 0.259542 -0.021585
0.097017 -0.455334 -0.002068
-0.050948 0.146875 0.004235
0.089814 0.172073 0.016586
-0.068676 -0.004870 -0.023022
-0.050695 -0.034571 0.002897
0.050546 -0.100132 -0.001396
0.076225 -0.161556 0.022873
0.065739 -0.125207 -0.022124
0.090990 0.071071 -0.015947
-0.059554 0.235479 0.018214
0.057802 -0.483384 -0.017175
-0.081898 0.032546 0.021575
0.058158 0.303415 -0.017545
0.060121 0.355321 -0.019069
-0.058360 -0.441316 0.017150
-0.077774 0.131505 -0.023072
-0.064303 0.206779 -0.021513
-0.096592 0.445795 0.004349
-0.052351 -0.190029 -0.009381
0.096529 -0.141132 0.004774
-0.067834 -0.180880 -0.022761
-0.050957 0.218126 0.004286
-0.090149 0.146742 0.016368
-0.090922 0.245987 -0.015976
0.054500 0.438878 -0.013245
0.087065 -0.109292 -0.019352
-0.085521 -0.303656 0.019813
0.080877 0.074572 0.021925
-0.086224 -0.424322 0.019404
-0.095983 0.276598 -0.007275
-0.062099 -0.006939 -0.020443
0.052443 0.131338 0.009007
0.053870 -0.003792 0.011870
-0.061437 -0.246666 -0.020011
-0.050517 -0.214738 -0.001836
-0.085620 0.249356 0.019755
-0.077152 -0.273620 -0.023072
0.052706 -0.458123 0.009678
0.096593 0.126851 -0.005132
0.079040 0.098936 -0.022969
0.051371 0.187511 0.006089
-0.095578 -0.177591 0.007876
-0.054305 0.063609 0.012557
-0.075451 -0.291509 0.022956
0.050936 0.139761 0.004181
0.087539 0.359992 -0.019017
-0.090423 -0.400238 -0.016493
-0.060790 -0.192810 0.019027
0.096409 -0.311273 -0.005818
0.066743 0.192070 -0.022428
0.056583 0.443055 -0.015912
0.050781 -0.067583 0.003503
-0.095308 0.353071 0.008550
-0.051767 0.056277 0.007238
-0.087670 -0.418371 -0.018906
-0.056169 -0.259660 -0.015542
0.065712 -0.120205 -0.022116
-0.069779 0.097898 0.022712
0.097070 0.358661 -0.001686
-0.096473 -0.491401 -0.005631
-0.087921 -0.312827 0.018223
0.096968 0.059013 -0.002427
0.079665 0.322633 -0.022782
-0.091197 0.160898 0.015150
0.075108 -0.068282 0.022989
0.094003 -0.272539 0.011247
-0.092562 0.493630 0.013563
0.051316 0.353014 0.005845
-0.077882 0.156754 0.022643
-0.088003 -0.013144 -0.018737
0.088511 0.089215 -0.018332
-0.074552 0.342469 -0.023072
0.083695 0.443331 0.020449
-0.071812 0.398022 0.022985
0.064354 -0.423552 -0.021536
0.053931 -0.443884 -0.012404
0.052220 -0.188128 -0.008994
-0.096006 0.068464 -0.007187
-0.053368 -0.258135 -0.011450
0.086328 -0.382311 0.019323
0.093254 -0.492414 -0.013086
-0.058477 -0.370094 0.017258
0.055444 0.301947 0.014074
-0.068627 -0.439975 -0.022999
0.096065 0.170917 0.006450
-0.093175 0.058307 0.012608
0.096892 -0.005462 0.002745
0.057369 -0.248210 0.016311
-0.096464 0.020046 -0.005681
-0.096900 -0.069307 -0.002851
-0.095989 0.136582 0.006852
0.066970 -0.023990 -0.022573
-0.095142 -0.225664 0.008962
0.097054 -0.101375 0.000230
0.092810 -0.387799 -0.013632
-0.050797 -0.371442 -0.003853
-0.093126 -0.448915 0.012689
-0.050582 0.009478 0.002109
0.059610 -0.245087 -0.018696
-0.095838 -0.202523 -0.007838
-0.061297 -0.054914 -0.019912
0.050670 -0.337889 0.002717
0.081297 0.166500 0.021814
-0.077758 -0.107335 -0.023072
-0.095098 -0.067046 0.009074
-0.052213 -0.271803 0.008560
0.077320 0.062124 0.022760
-0.086956 -0.245656 -0.019426
0.052621 0.219757 -0.009882
0.092732 -0.171612 0.013246
0.078145 -0.435109 -0.023072
0.059516 0.216788 -0.018627
-0.069183 -0.288371 0.022587
-0.071795 -0.500000 -0.008043
-0.077914 0.110141 -0.023072
-0.059762 0.110943 0.018351
0.069103 -0.093482 -0.023072
0.097027 -0.008082 -0.002077
-0.068888 -0.139842 -0.023072
-0.096259 -0.203877 0.005810
-0.094545 0.327080 -0.010773
-0.093888 -0.118763 -0.012030
-0.070526 0.102245 -0.023072
0.082898 -0.312100 -0.021691
0.094927 -0.121258 0.009511
0.062807 -0.202470 0.020256
-0.075650 -0.153073 0.022947
-0.084318 -0.127599 -0.020989
0.077467 0.495628 -0.023072
0.052326 0.062246 0.008717
0.075663 0.400715 0.022993
0.055797 -0.355391 -0.015098
0.057129 -0.461104 -0.016478
0.064802 0.311140 -0.021758
0.051897 0.080376 0.007648
-0.051059 0.029560 0.004990
0.073936 -0.256205 0.023045
0.095749 0.139876 -0.007981
-0.096887 0.087588 0.002843
-0.066058 -0.454942 0.019617
0.055666 -0.200248 0.014332
-0.096213 -0.130708 -0.006383
-0.076191 0.141781 -0.023072
0.088868 -0.186068 -0.018048
-0.059045 -0.500000 -0.014250
0.053410 -0.133209 0.010987
0.062729 -0.470475 -0.020787
-0.053666 0.032948 -0.012073
0.050457 -0.018001 -0.000418
0.067021 0.138586 0.022045
-0.089886 0.444468 0.016590
0.090686 -0.415066 0.015777
-0.088784 0.432667 -0.018093
0.080311 0.206809 0.022076
0.096695 0.310558 -0.004391
-0.073054 -0.259293 0.023050
0.057865 -0.359079 0.016743
-0.052918 0.290842 0.010034
-0.081335 -0.101534 -0.022273
0.073708 -0.127561 0.023034
0.050623 0.446741 0.002083
0.077503 0.311663 0.022741
-0.094813 0.321833 -0.010179
0.082869 0.495490 -0.021511
-0.092409 0.049333 -0.014216
0.097021 -0.067206 0.001818
0.095625 -0.068139 0.007754
0.051637 0.354666 -0.007483
-0.093663 0.438233 0.011802
0.089839 -0.255497 -0.017087
0.084351 -0.405244 -0.020987
-0.055321 -0.435843 -0.014419
-0.093247 -0.477174 -0.013111
0.061608 -0.065705 0.019558
-0.050757 0.410054 -0.003566
-0.096405 0.153973 0.005168
-0.083518 -0.387527 0.020918
-0.073488 -0.479589 0.017851
-0.091605 -0.391053 -0.015268
-0.096910 -0.191843 0.002536
0.084312 0.423778 -0.021006
0.078942 0.057934 0.022439
0.076517 -0.325011 0.022843
-0.054619 -0.000536 0.013016
-0.082559 0.326093 0.021282
0.051354 0.085623 -0.006384
0.090866 0.146959 0.015610
-0.086652 -0.191211 0.019154
0.072740 -0.263088 -0.023072
0.075041 0.103317 0.022995
-0.097048 0.168907 0.000656
0.077019 -0.055004 0.022791
0.050576 -0.341039 -0.001757
-0.059714 0.409407 0.018319
0.075031 0.202769 0.022996
-0.075547 0.349480 -0.023072
-0.055434 -0.013957 -0.014645
0.070147 -0.400988 -0.023072
-0.080903 0.085975 0.021910
-0.087273 -0.187196 -0.019195
-0.089836 -0.386835 -0.017101
-0.054749 -0.442301 -0.013621
0.092246 -0.075972 0.013878
0.050688 0.070214 0.002960
0.055048 0.149662 -0.014055
0.074552 0.381548 -0.023072
-0.050495 0.209174 -0.001064
0.055831 -0.373421 0.014524
-0.050506 0.056286 -0.000269
-0.086029 -0.068478 0.019517
0.066309 -0.177037 -0.022297
0.073585 0.223384 -0.023072
-0.073955 0.393954 -0.023072
-0.052667 -0.404649 -0.010024
-0.057876 0.008848 -0.017313
0.065291 -0.281015 0.021389
-0.069906 0.360818 -0.023072
0.090858 0.239395 -0.016077
-0.093692 -0.190104 0.011755
0.095512 0.155962 -0.008759
0.094836 0.285785 0.009683
0.052290 0.170754 0.008627
0.055184 -0.084185 -0.014256
-0.050509 -0.339973 -0.000069
-0.096842 -0.333116 -0.003543
0.060772 0.301180 0.019071
0.058595 -0.041512 -0.017964
0.086792 0.380682 0.019017
0.086473 0.322200 0.019227
0.093227 -0.096599 0.012602
-0.096487 0.393472 -0.005319
0.091342 0.052225 -0.015597
-0.070605 -0.356284 -0.023072
0.057143 0.474587 0.016049
0.080847 -0.301275 0.021933
-0.076352 -0.320108 -0.023072
-0.094582 0.238254 0.010285
0.050919 -0.352839 0.004107
0.057246 -0.483452 0.016168
0.074229 -0.500000 -0.005524
-0.086019 -0.148019 -0.020110
0.088969 -0.144502 0.017370
-0.050679 0.281584 -0.003005
-0.076979 -0.443930 0.020406
-0.064085 -0.263431 0.020881
0.057611 0.267725 -0.016977
0.073918 -0.368125 0.023061
0.056551 -0.489595 0.015360
0.069002 0.079964 0.022504
0.094090 0.198000 -0.011670
0.056239 -0.348444 -0.015555
0.087010 0.230533 -0.019390
-0.064080 0.343946 -0.021406
-0.058551 0.147872 -0.017902
0.069808 -0.180000 0.022668
0.066376 0.436319 0.020951
0.086253 0.336788 0.019372
-0.056900 -0.314021 -0.016267
-0.055453 0.368781 -0.014603
-0.059982 -0.500000 0.004710
-0.071231 0.430345 -0.023072
-0.051816 -0.011919 -0.008081
-0.053611 0.235405 -0.011943
-0.096901 -0.461754 -0.003050
-0.088247 0.500000 0.006339
-0.079035 -0.395386 0.022457
-0.059438 0.328712 0.018138
0.091752 0.219789 -0.015107
0.078692 0.193192 0.022505
-0.096861 0.110843 -0.003311
-0.062770 0.278167 0.020296
-0.050526 0.431837 0.001141
-0.094197 0.271548 0.010920
0.078823 -0.209894 0.022470
0.059049 0.437039 -0.018287
0.078808 0.118503 0.022474
-0.050524 0.474354 0.001541
-0.085297 -0.161098 -0.020504
0.063714 0.403170 0.020784
0.089360 -0.500000 -0.000802
-0.053058 -0.046764 -0.010820
0.097035 -0.027907 0.001695
-0.081781 -0.056579 -0.022138
0.055693 -0.137445 0.014364
0.094071 -0.146710 0.011118
0.069452 -0.197319 0.022596
-0.055873 0.444672 -0.015188
0.082756 -0.000650 0.021252
-0.060812 0.053506 -0.019570
-0.097094 -0.057238 -0.000523
0.095585 -0.219163 0.007873
-0.096947 -0.440280 0.002031
-0.087356 -0.053323 0.018693
-0.064310 -0.366496 -0.021517
0.052222 0.326796 0.008457
0.052751 0.417430 -0.010171
0.085590 -0.310110 0.019808
-0.088167 0.077082 0.018019
0.055578 -0.090964 -0.014838
-0.070796 0.300006 -0.023072
-0.067878 0.143655 -0.022775
0.050528 0.238490 0.000791
-0.092840 0.418636 -0.013579
0.084937 -0.480632 0.017777
-0.093259 0.358781 0.012470
-0.090440 -0.252659 0.016030
-0.078837 0.462521 -0.023029
0.096340 0.269916 0.005635
0.089017 -0.209697 -0.017901
-0.063197 0.271695 0.020486
-0.050902 -0.355836 0.003957
-0.058658 0.372849 -0.018008
-0.075400 0.334410 0.022959
0.074397 0.206973 -0.023072
-0.077729 -0.212471 0.022675
-0.062816 0.250401 -0.020793
-0.067458 0.268329 -0.022648
-0.051736 -0.079506 0.007145
0.069890 0.065262 -0.023072
-0.074766 -0.423632 -0.023072
0.075058 -0.311774 -0.023072
0.063402 0.421851 0.020602
-0.063483 0.362367 0.020613
-0.073533 0.250098 -0.023072
-0.096177 -0.164527 0.006170
-0.096448 0.034131 0.005114
0.051248 0.349532 -0.005972
-0.095762 0.355233 -0.008071
0.057965 -0.025972 0.016866
0.084593 -0.435691 -0.020869
0.088263 0.219129 -0.018506
0.097068 0.039449 0.000016
-0.065541 -0.484940 0.017468
-0.089822 0.478103 -0.017116
-0.096620 0.211032 -0.004803
0.094486 -0.486005 0.010487
-0.064178 0.248362 0.020922
-0.050490 0.377938 -0.001639
0.085815 -0.087015 0.019660
0.051129 -0.454937 -0.005517
-0.089331 0.097130 -0.017625
0.068897 -0.203854 -0.023072
-0.083376 -0.408871 -0.021456
0.094932 0.282310 -0.009959
-0.092799 0.357970 -0.013640
0.070195 0.399540 -0.023072
0.070226 -0.412937 0.022626
0.052410 0.339674 -0.009414
-0.051542 0.310960 0.006570
0.069150 0.338314 -0.023072
0.089957 0.429092 -0.016970
-0.090288 -0.130249 -0.016632
0.078383 0.372781 -0.023072
0.097067 0.319898 -0.000741
-0.059650 -0.361228 -0.018751
-0.068440 -0.405142 0.022437
-0.061806 -0.221678 0.019696
-0.082415 0.419200 -0.021931
0.095319 -0.193771 0.008663
-0.060368 0.389760 -0.019257
0.056929 -0.166542 -0.016270
-0.050523 0.081809 -0.001881
-0.097009 0.355300 0.001188
0.093840 -0.066444 0.011553
0.051568 -0.496758 0.006851
-0.057293 -0.038913 -0.016681
-0.055484 -0.453902 -0.014646
0.094827 0.395922 -0.010171
-0.051154 -0.466039 -0.005891
-0.052199 0.394423 0.008518
-0.096351 -0.262387 0.005408
-0.089569 0.026606 0.016895
-0.082645 -0.370866 0.021249
0.097048 -0.250792 0.000622
-0.095625 0.446181 -0.008376
0.058235 0.292016 -0.017625
-0.059478 0.203578 0.018164
-0.052282 -0.486752 0.008788
-0.053457 -0.482146 -0.011688
0.064731 0.485997 0.017392
-0.052782 0.175849 -0.010259
-0.051037 0.189197 -0.005424
-0.090351 0.007925 -0.016649
0.096049 -0.473867 0.006672
0.069596 -0.234412 0.022625
-0.096170 0.472058 -0.006765
0.058818 0.133450 -0.018118
0.065757 0.375977 -0.022130
0.091323 -0.051293 0.015078
0.052811 -0.421708 0.009924
-0.093740 -0.486791 -0.012311
0.084480 -0.111880 0.020437
0.094948 -0.420919 0.009473
0.080021 -0.254081 -0.022675
-0.094797 0.387270 0.009821
-0.070119 0.426880 0.021627
0.050516 0.276128 -0.001046
-0.060675 0.238563 -0.019474
-0.057326 -0.096894 0.016190
0.050467 -0.042807 -0.000453
-0.083612 -0.281839 -0.021339
-0.078830 -0.298930 0.022450
0.091659 -0.042328 0.014648
-0.061677 0.500000 -0.004667
-0.053434 0.249069 -0.011584
0.068619 0.049111 -0.022995
0.051390 0.424727 -0.006524
-0.071364 -0.122438 0.022875
-0.082809 -0.231542 0.021187
-0.096716 0.316415 0.003805
-0.076638 0.036421 -0.023072
0.065962 0.476377 -0.022224
0.094043 0.403327 -0.011766
0.094001 0.084786 0.011249
0.052400 0.015254 -0.009572
0.057775 -0.156727 -0.017147
-0.051900 -0.361968 0.007631
-0.096454 0.408894 -0.005448
-0.053403 -0.269420 -0.011522
0.095393 -0.433314 -0.009022
-0.096906 0.463034 -0.003063
0.057319 0.121837 -0.016674
-0.054908 -0.493655 0.013430
-0.096240 0.385967 -0.006279
0.089439 0.154892 0.016935
-0.076335 0.424979 0.021763
-0.057706 -0.067711 -0.017065
0.093058 -0.020141 -0.013385
0.093935 -0.478279 -0.012008
0.061247 -0.287049 0.019348
0.066765 0.424913 0.021768
0.053683 0.191036 0.011439
0.055477 -0.170785 -0.014689
0.078650 -0.087003 -0.023072
0.073449 -0.187033 0.023022
-0.080074 0.257834 -0.022655
-0.052578 -0.183313 0.009395
0.095551 -0.165638 0.007974
-0.057053 0.306030 0.015936
0.050725 0.032626 -0.003739
-0.082198 0.208084 0.021419
-0.072271 0.070296 0.022969
0.067704 -0.172697 -0.022719
0.085532 -0.055743 0.019846
0.056199 -0.275043 -0.015514
0.091382 -0.318187 0.015001
-0.063004 -0.156638 -0.020884
-0.056075 0.392358 0.014858
0.076262 -0.329381 -0.023072
-0.084688 0.063749 -0.020806
-0.091854 -0.193458 -0.015010
0.088319 -0.486168 -0.018495
-0.054278 0.436873 0.012522
0.087345 -0.373254 -0.019154
0.071585 0.327772 0.022930
-0.052555 -0.334571 0.009352
0.050994 0.065672 0.004433
0.086545 -0.279083 0.019180
-0.056694 -0.108444 -0.016062
0.064649 -0.454363 0.019658
-0.059631 0.271577 -0.018737
0.050546 -0.428348 0.001027
-0.090805 -0.306772 0.015606
0.051075 0.439208 -0.005298
0.055042 0.274202 -0.014046
0.090964 0.487223 -0.015972
0.087142 -0.176327 -0.019297
0.095929 -0.199225 -0.007393
-0.063704 0.185736 0.020712
0.054066 -0.282836 0.012070
-0.095379 0.429274 0.008371
0.082413 0.041859 -0.021932
0.059567 -0.278496 -0.018665
0.093386 0.019593 -0.012885
0.077617 -0.366183 -0.023072
-0.097037 -0.170872 -0.001202
-0.081162 -0.181007 -0.022326
0.094049 0.416761 -0.011754
0.053126 0.449586 0.010518
0.050469 0.286502 -0.000020
-0.051185 0.285841 -0.005910
0.058431 0.483276 -0.017827
0.091921 0.193570 0.014300
-0.062071 -0.451341 -0.020432
0.052821 -0.091112 -0.010328
-0.095856 -0.212908 0.007184
-0.090126 -0.203322 -0.016801
-0.065790 -0.207557 0.021639
-0.068623 0.171265 0.022438
0.079525 -0.143536 0.022284
0.087227 -0.383331 -0.019237
0.058990 -0.449242 -0.018243
0.097046 -0.108442 0.000731
-0.074473 -0.461688 0.019134
-0.087746 -0.471369 -0.018929
-0.074039 0.203713 -0.023072
0.051174 -0.059572 -0.005684
0.097048 0.151706 0.000643
0.050728 0.071309 -0.003575
0.083785 -0.271420 0.020746
0.059352 -0.435246 0.017979
-0.068631 0.285560 0.022441
0.073661 -0.240849 -0.023072
0.097049 0.006323 -0.001651
0.059109 0.395047 -0.018330
0.072871 -0.083224 0.022993
0.086263 0.057354 0.019365
-0.063801 0.423123 0.020780
-0.089291 -0.466572 0.017126
0.056530 0.151777 0.015337
0.069003 0.381103 -0.023072
0.087036 0.467676 0.018705
-0.067634 -0.450382 -0.022701
-0.094706 0.368090 0.010048
0.090754 -0.448631 -0.016180
0.093269 0.086113 -0.012993
-0.093693 0.444058 0.011753
0.094498 0.413685 0.010317
0.094595 0.469806 0.010239
-0.056130 -0.113075 0.014931
0.064909 -0.466527 -0.021828
0.087582 -0.142716 -0.018987
-0.092502 -0.286772 -0.014078
-0.087993 -0.036244 -0.018713
0.051867 0.370241 0.007574
0.090544 0.329865 -0.016388
0.058973 -0.474574 -0.018266
-0.091667 -0.368125 0.014604
0.050821 -0.190923 -0.004314
0.084729 -0.233128 -0.020803
0.050466 0.329573 -0.000054
-0.056357 -0.198530 0.015225
-0.059556 0.335481 0.018215
-0.051470 -0.310396 -0.006843
0.097042 -0.163875 0.001085
-0.059530 -0.428173 -0.018666
-0.088232 0.383078 -0.018496
-0.058828 0.462172 -0.018172
-0.091973 -0.275870 -0.014860
-0.051873 0.200290 -0.008162
0.076336 -0.293164 0.022862
-0.050725 0.052308 0.002894
-0.094236 -0.345963 0.010855
-0.058590 0.276514 0.017363
0.073545 -0.118518 -0.023072
-0.091875 -0.175404 -0.014988
0.096819 0.093841 -0.003497
0.077154 0.078142 -0.023072
0.050508 -0.349528 0.000512
-0.081393 -0.070626 0.021724
-0.091782 -0.147487 -0.015084
0.060198 0.487975 -0.019222
-0.079857 -0.273198 0.022240
0.096940 -0.038870 -0.002736
-0.061346 -0.260133 0.019393
0.051356 -0.418817 -0.006392
-0.082899 -0.320806 0.021153
0.059637 0.342778 -0.018716
-0.072961 -0.195720 0.023040
0.057796 -0.336146 0.016686
-0.093967 -0.158962 -0.011914
0.066812 -0.406904 -0.022449
-0.054487 -0.055657 -0.013256
-0.091089 -0.286106 0.015276
-0.095468 -0.170510 -0.008723
0.096687 0.395372 -0.004448
-0.052755 0.289469 -0.010203
-0.063945 -0.195742 0.020819
-0.071527 0.062756 0.022892
-0.058275 0.125804 -0.017629
-0.060952 0.357846 0.019134
0.084894 0.221783 0.020253
-0.054156 0.340654 -0.012795
0.096918 -0.183621 -0.002783
0.058212 0.067017 -0.017600
-0.092591 0.046224 0.013530
-0.068459 0.172344 -0.022949
-0.056878 0.364324 -0.016245
-0.084495 0.256289 -0.020901
-0.090475 -0.226027 -0.016439
-0.096502 -0.081895 0.004743
0.079890 -0.132640 -0.022714
-0.084341 0.237871 0.020500
0.080656 -0.486842 -0.022485
0.059839 0.145744 0.018384
-0.073716 -0.243051 0.023041
0.081157 -0.424232 0.021817
0.052015 -0.411843 0.007943
-0.066848 0.027335 0.022000
-0.050503 -0.310087 -0.000514
-0.078017 -0.085653 0.022616
-0.054740 0.318320 -0.013610
-0.076272 0.341978 0.022916
-0.095355 -0.194308 -0.008975
-0.087986 0.439047 0.018169
-0.089816 0.185391 0.016649
-0.092957 -0.414512 0.012969
-0.080001 0.331815 -0.022677
-0.096885 0.055133 0.002876
0.054618 -0.500000 0.010928
-0.066800 -0.228639 -0.022451
0.078676 -0.381996 0.022526
0.064339 -0.212054 -0.021529
0.076496 0.402480 -0.023072
-0.062512 -0.392941 -0.020645
-0.096950 0.300874 0.001987
-0.096004 -0.002614 -0.007350
-0.082900 0.268685 -0.021691
-0.064871 -0.228302 0.021230
-0.082774 0.231281 0.021200
-0.083020 -0.039520 -0.021656
-0.095042 -0.395159 0.009213
-0.072881 -0.210776 -0.023072
0.067552 -0.049056 0.022208
0.083464 -0.163961 -0.021416
-0.051003 0.363150 0.004564
-0.093128 0.173842 0.012686
0.088694 -0.478612 -0.018207
0.051503 -0.158493 -0.006963
-0.096970 0.376694 0.001720
-0.094326 0.463780 -0.011298
0.079096 -0.081890 0.022398
0.055673 -0.457665 0.014340
0.096095 0.188265 -0.006850
0.096664 -0.381300 -0.004619
0.073521 0.113058 0.023025
0.052769 -0.452472 -0.010212
0.058936 -0.091532 -0.018204
0.065122 0.412153 -0.021917
0.096640 0.023672 0.004352
-0.075112 -0.344035 0.022973
-0.062802 0.385256 -0.020786
0.059272 0.020150 0.017995
0.050588 -0.159962 0.001607
-0.070060 0.010004 -0.023072
0.097065 0.208268 -0.000570
-0.083429 -0.044916 0.020952
0.052200 -0.347907 -0.008948
-0.050819 0.062932 -0.004017
-0.076201 0.412830 -0.023072
-0.050518 0.354743 0.000605
0.054616 -0.163994 0.012980
-0.064304 0.105473 0.020978
-0.055203 0.051430 0.013725
0.060749 -0.225576 0.019058
-0.072628 0.474518 0.018215
0.077666 0.219470 -0.023072
0.069408 0.409492 0.022650
-0.084057 0.129821 0.020665
0.077567 -0.020640 0.022734
0.051510 0.387609 -0.006989
-0.075231 0.155491 -0.023072
0.050616 -0.207777 -0.002240
-0.086770 0.376448 0.019086
-0.067455 -0.386414 -0.022648
0.059024 0.274323 0.017707
0.051142 -0.324179 0.005083
0.096796 0.148435 -0.003661
-0.083918 -0.171831 0.020746
-0.067818 0.434230 -0.022757
0.096314 0.091074 0.005713
-0.085480 -0.405026 0.019837
-0.055151 0.286623 0.013657
-0.050524 -0.140684 0.001000
0.053966 0.249275 -0.012455
-0.054089 0.446642 0.012231
0.051187 -0.467373 -0.005926
0.050566 -0.409996 0.001303
-0.051420 -0.319608 -0.006680
-0.058334 0.351913 -0.017687
-0.070506 0.342765 0.022787
-0.075076 -0.285312 0.022975
-0.079854 0.267980 0.022241
-0.073996 0.500000 0.012008
-0.066070 0.424821 -0.022232
-0.075222 -0.489633 0.017132
-0.092299 0.164814 -0.014379
0.095310 0.097568 -0.009190
0.058344 -0.364062 -0.017737
0.050851 -0.393277 0.003809
-0.097102 -0.377067 -0.000079
0.093822 0.446372 0.011586
-0.050473 -0.024408 -0.000989
-0.095175 -0.335326 0.008881
0.095503 0.166987 -0.008787
-0.052115 0.359182 0.008268
-0.055211 -0.355464 0.013735
-0.073940 0.058639 0.023030
-0.083615 0.449411 0.020013
-0.096947 0.191887 0.002037
0.052724 -0.407453 0.009709
0.076204 0.364943 0.022932
-0.062656 -0.386964 -0.020715
-0.096719 0.124322 0.003792
-0.051098 0.200931 0.005136
-0.078675 -0.155769 -0.023072
0.075269 -0.477491 0.018002
-0.067978 -0.319441 0.022267
-0.061896 -0.475312 -0.020338
-0.051768 -0.262654 -0.007820
0.050829 -0.016370 0.003830
-0.089576 -0.331786 0.016848
0.092812 -0.302441 -0.013630
0.096825 -0.265742 -0.003455
-0.097073 -0.041091 -0.000775
0.050477 0.393109 0.000091
0.081496 0.337889 0.021761
0.096539 -0.471533 -0.005412
-0.094409 -0.386758 -0.011074
0.085480 0.143689 0.019880
0.083286 0.222448 -0.021503
0.081629 -0.257670 0.021704
-0.064156 0.276622 -0.021442
-0.077180 0.388961 0.022809
0.088641 -0.211120 0.017675
0.094117 -0.097994 -0.011615
-0.050521 -0.197524 0.000786
-0.066163 0.118428 0.021786
-0.090367 0.240843 -0.016551
0.095605 -0.307105 -0.008452
-0.083011 0.287191 0.021110
0.095853 0.403466 0.007079
-0.091960 -0.460118 0.014263
-0.050711 -0.334853 -0.003231
-0.092794 0.097016 -0.013647
0.057631 0.193485 -0.016998
-0.059657 -0.017214 -0.018810
0.087392 -0.169863 0.018622
-0.061768 0.096175 0.019670
0.091781 0.393856 -0.015066
-0.056844 0.485004 0.015781
-0.050517 -0.221129 0.000469
-0.051546 -0.053656 -0.007091
0.052237 -0.425177 -0.009029
-0.060772 0.109265 -0.019542
-0.060882 -0.103441 0.019088
0.070228 -0.033399 -0.023072
-0.081914 -0.383260 0.021526
-0.078854 -0.050638 -0.023024
-0.074475 -0.278671 -0.023072
0.053196 0.201037 0.010634
-0.086589 0.008207 -0.019743
0.052030 -0.207392 -0.008570
0.052861 0.391934 0.010050
0.097035 -0.465937 -0.001940
0.096656 -0.292608 -0.004672
-0.058371 0.055781 0.017160
0.096696 0.069111 -0.004385
0.094945 -0.234111 -0.009932
0.069459 -0.135698 -0.023072
0.096987 -0.148402 -0.002286
-0.059113 0.449598 0.017849
-0.078444 0.305450 0.022529
0.063084 -0.315189 0.020417
0.096920 0.168651 -0.002773
-0.067624 0.186369 -0.022698
-0.081895 0.436732 0.020921
0.055732 0.429525 -0.015030
0.057912 0.031695 -0.017336
0.056620 0.158485 -0.015951
0.087292 0.037180 -0.019220
-0.065416 0.068301 -0.022036
0.050884 -0.034521 -0.004650
-0.083408 -0.500000 -0.007404
0.053654 0.077790 0.011389
0.057376 0.073650 0.016319
0.089062 -0.130383 0.017285
-0.097054 -0.453507 0.000576
0.057968 0.335067 -0.017348
0.094276 -0.157755 0.010734
0.051105 0.055560 0.004920
-0.053169 0.383828 0.010506
0.053368 0.333806 -0.011542
0.050467 0.122616 -0.000452
-0.071037 -0.497390 -0.023072
0.078191 -0.239886 -0.023072
-0.056388 -0.252914 0.015265
0.066181 0.055609 0.021727
-0.084555 0.402946 -0.020872
-0.078806 0.234881 0.022455
0.050795 0.284088 -0.004213
-0.076926 0.320964 -0.023072
0.095918 0.459943 -0.007468
-0.079554 0.401146 0.022330
-0.058599 -0.218551 -0.017950
-0.073182 -0.413660 -0.023072
-0.062740 0.436820 -0.020756
0.058249 0.102873 -0.017639
-0.062258 -0.023599 -0.020538
-0.094885 0.394314 -0.010017
-0.062584 -0.373149 -0.020681
-0.094639 -0.298539 -0.010565
0.055870 0.040368 0.014587
0.091704 -0.443369 -0.015174
-0.064496 0.288127 -0.021607
0.081535 -0.249343 -0.022221
0.052769 -0.200535 -0.010213
0.070577 -0.042092 -0.023072
0.050776 -0.473488 -0.004140
-0.096759 -0.020206 -0.004288
-0.076483 -0.433735 -0.023072
0.096690 0.199495 0.003808
-0.079796 -0.440529 -0.022739
-0.050509 0.343022 -0.000043
-0.096538 0.155216 -0.005120
-0.055762 0.013704 -0.015063
0.050690 0.084701 0.002988
-0.096362 -0.255819 -0.005801
-0.095275 0.423068 -0.009151
-0.091199 0.398924 0.015148
-0.088761 0.290251 0.017525
-0.079059 -0.250502 0.022403
0.096918 0.305522 -0.002784
0.068402 -0.463539 -0.022930
0.058161 0.306560 0.016989
0.087588 0.334215 -0.018983
0.094659 0.070394 -0.010513
-0.075498 0.459599 0.019283
-0.067627 0.412269 0.022238
