0.35557395 0.35946122 0.27454883 0.00002373 0.00001129 -0.00007848
0.55193818 0.74794549 0.37352923 0.00000001 0.00003831 -0.00014830
0.53976041 0.28064767 0.65714061 -0.00001665 -0.00003463 0.00009986
0.62716126 0.28805855 0.95079225 -0.00012733 -0.00019130 0.00015834
0.72039282 0.41575766 0.66296679 0.00008444 -0.00002851 0.00000093
0.31118709 0.46730989 0.34282663 -0.00009394 -0.00001891 0.00001677
0.54459822 0.39566171 0.68129975 0.00000112 -0.00001322 0.00005147
0.58277261 0.42068458 0.51417249 0.00000530 -0.00000628 -0.00004775
0.43359923 0.31926027 0.52539021 -0.00000284 -0.00001754 -0.00008359
0.32624516 0.39006016 0.71976328 -0.00003024 0.00005114 0.00004490
0.45316601 0.40344986 0.66737634 -0.00002332 -0.00001346 0.00005113
0.34692115 0.31604537 0.24004400 -0.00010597 -0.00006663 -0.00002254
0.63227367 0.31551349 0.81954098 -0.00004296 0.00001677 0.00003687
0.57524538 0.36922869 0.52118605 0.00001291 -0.00001778 -0.00004140
0.53953856 0.36112958 0.51684374 0.00000250 -0.00001598 -0.00004328
0.66464192 0.74227667 0.71234697 -0.00002858 0.00008819 0.00002227
0.38497820 0.58999842 0.64897156 -0.00002124 0.00001240 0.00003665
0.43427840 0.70013463 0.36316076 0.00005657 -0.00007508 -0.00001820
0.35134530 0.39197221 0.32808495 0.00006538 -0.00000414 -0.00003153
0.65039212 0.26887453 0.58973747 -0.00001671 -0.00007821 0.00000183
0.55564952 0.73689973 0.61782980 0.00000752 0.00006973 -0.00000125
0.65515172 0.72720861 0.73417121 -0.00006900 -0.00003475 0.00003008
0.29468247 0.37611493 0.07049923 0.00010986 -0.00002612 -0.00015734
0.32163918 0.35722736 0.75401437 0.00005095 -0.00007974 0.00005977
0.68271309 0.31065023 0.70889926 -0.00002962 0.00004726 0.00005320
0.36479682 0.62391686 0.36667207 0.00004239 -0.00001598 -0.00003156
0.63520586 0.34003356 0.67347068 0.00001246 -0.00002184 0.00003530
0.60765994 0.28850678 0.65940636 0.00001685 0.00001266 0.00007756
0.41756102 0.70515424 0.64189166 -0.00004354 0.00004255 0.00008766
0.35777327 0.33396739 0.20845768 0.00004536 0.00002089 -0.00006047
0.69425344 0.61867803 0.67709380 -0.00000813 0.00001247 0.00007238
0.67197365 0.70047283 0.72675127 -0.00001371 -0.00003948 0.00003951
0.48757079 0.73017532 0.61516315 -0.00001550 0.00007847 0.00001594
0.29717276 0.65626866 0.75296068 -0.00013066 0.00006861 -0.00000415
0.38833314 0.69266558 0.62018371 -0.00005604 0.00008367 -0.00001838
0.73578638 0.58196753 0.59048486 0.00009620 0.00001974 -0.00000230
0.40676343 0.36823860 0.64967799 -0.00003392 -0.00000668 0.00004937
0.38295344 0.41713598 0.52191252 -0.00001189 -0.00001478 -0.00000752
0.30610377 0.50079823 0.33046615 -0.00009019 -0.00000853 -0.00001784
0.36453587 0.30917186 0.23208492 0.00009985 -0.00011579 -0.00004361
0.60855371 0.46491781 0.69425941 0.00000508 -0.00000684 0.00005682
0.50767398 0.43649366 0.50350225 0.00000072 -0.00001785 -0.00003653
0.46375808 0.48102325 0.67727929 -0.00001207 -0.00001171 0.00005228
0.38427630 0.43531623 0.51327783 -0.00000688 -0.00002060 -0.00001585
0.36615789 0.34617880 0.53429848 -0.00001143 -0.00002790 -0.00006164
0.69025213 0.32041040 0.67775846 0.00003227 0.00000194 0.00005345
0.37846112 0.66995484 0.27782193 0.00006160 -0.00005794 -0.00006410
0.42200062 0.29879886 0.35708460 0.00004790 -0.00000550 -0.00011515
0.74153435 0.55885124 0.58902109 0.00011202 0.00002289 -0.00001882
0.41639727 0.59966767 0.51413435 -0.00001360 0.00000955 -0.00001358
0.29066747 0.36145237 0.11678994 -0.00008827 -0.00003992 -0.00000580
0.42213157 0.39272684 0.65676242 -0.00002837 -0.00001131 0.00004363
0.56112283 0.65140724 0.67781574 0.00000701 0.00001178 0.00005072
0.71111631 0.34144732 0.60644120 0.00007906 -0.00002176 0.00001842
0.36830088 0.35666454 0.63651741 -0.00002297 0.00002179 0.00007742
0.66555023 0.70767182 0.81652701 0.00010131 -0.00002443 0.00006823
0.41320142 0.32758850 0.52680486 -0.00000916 -0.00001414 -0.00008662
0.32873726 0.33532664 0.10758345 0.00011459 0.00002370 -0.00011681
0.41270775 0.71774113 0.36815497 -0.00005886 0.00012720 0.00000989
0.60106283 0.73611599 0.41010883 -0.00000963 0.00002341 -0.00004872
0.71165180 0.37892255 0.64392549 0.00005884 -0.00003310 0.00002852
0.39352557 0.70120656 0.37075979 -0.00004579 0.00004181 0.00006898
0.55893081 0.53840798 0.50390953 0.00000528 0.00000572 -0.00004837
0.69115400 0.50649166 0.69141817 0.00000080 0.00000264 0.00007418
0.33770466 0.49779242 0.63813668 -0.00003276 0.00000283 0.00006303
0.68117380 0.26992831 0.69311112 -0.00000001 -0.00014759 0.00000506
0.59647596 0.76059145 0.37956446 0.00001234 0.00011299 -0.00011747
0.64643258 0.31581080 0.80359370 -0.00000154 0.00006343 0.00000579
0.38143873 0.68586755 0.24548918 0.00010486 -0.00000820 -0.00005279
0.59321105 0.36835405 0.52627122 0.00001110 -0.00002261 -0.00003668
0.45389333 0.66804278 0.65942001 -0.00002389 0.00000858 0.00006063
0.39355919 0.36651295 0.53117627 -0.00001337 0.00001562 -0.00001144
0.47425565 0.73027074 0.55975044 -0.00001956 0.00008753 0.00001100
0.31020242 0.53715330 0.33987537 -0.00008380 0.00001281 0.00000165
0.55929720 0.66317314 0.67551821 0.00000394 0.00001475 0.00005219
0.43358195 0.30686978 0.36424455 0.00005523 0.00005343 -0.00004070
0.48481870 0.27898023 0.36878413 0.00004799 0.00005328 -0.00012727
0.42640841 0.53183091 0.66786093 -0.00001886 -0.00000261 0.00004950
0.67497677 0.70711267 0.56209075 -0.00003785 -0.00001106 -0.00001654
0.30549461 0.51474351 0.55269325 -0.00007954 -0.00002109 -0.00001830
0.59066170 0.38597879 0.68190622 0.00000649 -0.00001382 0.00004623
0.43107620 0.71884400 0.55019754 -0.00005734 0.00010372 0.00000358
0.37065840 0.64594024 0.31786197 0.00004462 -0.00003451 -0.00004641
0.42901778 0.70391053 0.38595882 0.00000866 -0.00001875 0.00005324
0.70451373 0.68474740 0.62820095 0.00005186 0.00001014 0.00002219
0.69284511 0.28000307 0.71484357 0.00017678 0.00001710 0.00002579
0.47318375 0.28429085 0.62290770 -0.00002940 -0.00009871 0.00001013
0.61094034 0.73863167 0.61117542 0.00001119 0.00006112 0.00000035
0.63737428 0.27571440 0.54794186 0.00000446 -0.00001409 -0.00001522
0.46394628 0.27881294 0.39840299 -0.00000731 -0.00000453 0.00005898
0.67317468 0.46458593 0.53142542 0.00001722 -0.00001301 -0.00007054
0.45981857 0.58033007 0.67213601 -0.00001494 0.00000119 0.00004702
0.52740812 0.27112389 0.57275832 -0.00001180 -0.00009987 -0.00001225
0.69304061 0.28851312 0.70846647 0.00013146 0.00000809 0.00003803
0.46662843 0.72574025 0.61759883 -0.00002725 0.00008483 0.00000295
0.67527038 0.40168875 0.68385547 0.00000171 -0.00001871 0.00006354
0.51282096 0.53612864 0.68501109 -0.00000740 0.00000070 0.00004987
0.49030843 0.36949146 0.66882831 -0.00001266 -0.00001897 0.00005243
0.72121745 0.62331772 0.61852354 0.00006005 0.00002193 0.00003656
0.34800947 0.61189997 0.47825298 -0.00001288 -0.00005510 0.00001101
0.30745211 0.51514810 0.33617768 -0.00009277 0.00000021 -0.00000338
0.74554205 0.53675145 0.60534656 0.00011023 0.00001453 0.00000302
0.55667597 0.41793609 0.51067120 0.00000734 -0.00000823 -0.00004175
0.33757374 0.42994747 0.34040272 0.00004782 0.00001275 -0.00004990
0.57127488 0.60485190 0.51383793 0.00000490 0.00001060 -0.00004303
0.72239852 0.59291053 0.63959497 0.00005818 0.00002326 0.00001442
0.65372247 0.44751033 0.52783954 0.00001605 -0.00001690 -0.00006000
0.34356532 0.69564319 0.17817330 -0.00006318 0.00009762 -0.00005348
0.65302056 0.28741300 0.83271426 0.00004220 -0.00011713 0.00009155
0.55563855 0.55365157 0.50563705 0.00000047 0.00000471 -0.00004355
0.59229279 0.76372093 0.39778382 0.00000533 0.00008702 0.00003572
0.30866045 0.38084638 0.10799804 0.00007052 0.00000176 -0.00004686
0.47551578 0.37660864 0.50971562 -0.00000295 -0.00001170 -0.00003964
0.63972634 0.72805047 0.89607602 0.00005196 0.00011612 0.00003342
0.43884254 0.29695138 0.64364910 -0.00002593 -0.00005247 0.00009423
0.36247927 0.34080002 0.57054716 -0.00006511 -0.00006979 -0.00000062
0.30421808 0.54398501 0.56286716 -0.00009903 0.00001494 -0.00001188
0.67956543 0.56547564 0.53606409 0.00002183 0.00001329 -0.00006419
0.29542530 0.64327633 0.76326913 -0.00010563 -0.00007688 0.00002347
0.43682960 0.30130640 0.39141035 0.00001616 0.00002966 0.00003619
0.37037656 0.36495730 0.34348214 0.00004423 0.00000081 -0.00003946
0.60469508 0.26748258 0.41673324 -0.00000670 0.00002216 -0.00006220
0.30290616 0.52691758 0.56422371 -0.00009642 -0.00002523 -0.00000617
0.36970922 0.38516778 0.45520401 0.00004234 -0.00001612 -0.00002287
0.68655533 0.70023096 0.71874493 0.00000961 -0.00005658 0.00004759
0.44229203 0.33730870 0.65428394 -0.00001790 -0.00001773 0.00007040
0.61732835 0.74205756 0.49431390 -0.00003079 0.00006630 0.00001072
0.61415434 0.32422537 0.54913384 0.00001068 -0.00003401 -0.00000552
0.40439317 0.31153667 0.59190136 -0.00004336 -0.00008744 0.00001666
0.33532530 0.39594993 0.41639411 -0.00008445 0.00000271 -0.00002019
0.61254054 0.52844137 0.69344383 0.00000191 0.00000232 0.00005342
0.33274317 0.38094643 0.33177626 -0.00006538 -0.00000242 -0.00001951
0.50089508 0.61090714 0.67668015 -0.00000880 0.00001000 0.00004923
0.28972462 0.56836414 0.07089564 0.00007234 -0.00002339 0.00001394
0.54444277 0.27071109 0.58991939 -0.00000750 -0.00008874 0.00002161
0.42057592 0.42315394 0.65982187 -0.00002395 -0.00001759 0.00004184
0.69044483 0.28714663 0.73620689 0.00013557 0.00002087 0.00005279
0.69676191 0.72703040 0.68426371 0.00012647 -0.00000799 0.00004028
0.70802146 0.55258781 0.54585797 0.00003922 0.00002573 -0.00007425
0.52178925 0.37709957 0.67529184 -0.00001048 -0.00001559 0.00005144
0.31590578 0.57590044 0.53293467 -0.00008346 0.00002929 -0.00005388
0.65919042 0.29213357 0.82892567 0.00010425 -0.00004651 0.00009951
0.44439590 0.52442181 0.67330796 -0.00002206 0.00000640 0.00004994
0.69209325 0.73539680 0.66211575 0.00003867 0.00010972 0.00001772
0.44796267 0.29031879 0.59443802 -0.00003124 -0.00009756 0.00001079
0.49425340 0.54147285 0.68226171 -0.00001008 0.00000262 0.00005072
0.63751882 0.36792126 0.53596044 0.00000327 -0.00002347 -0.00004994
0.72754091 0.59395158 0.62695539 0.00006860 0.00003644 0.00002374
0.49267778 0.38084912 0.51053572 -0.00000064 -0.00000696 -0.00003652
0.65633094 0.72281265 0.72363824 -0.00005288 -0.00000288 0.00003088
0.73601365 0.50264937 0.66243303 0.00009178 -0.00000268 0.00002821
0.32827723 0.36055773 0.67751747 -0.00003909 -0.00011943 0.00005631
0.52985293 0.31306410 0.52848691 0.00000780 -0.00002227 -0.00004594
0.39367104 0.60717034 0.52351087 -0.00000992 0.00000492 -0.00000525
0.52951473 0.59701192 0.68288630 -0.00000476 0.00000930 0.00005104
0.31487203 0.44265071 0.53319103 -0.00009207 -0.00002706 -0.00004149
0.56848371 0.35017473 0.52427822 0.00001105 -0.00002641 -0.00003795
0.29076022 0.61959088 0.11286405 -0.00005113 -0.00001370 0.00004175
0.50807589 0.30246198 0.52946883 0.00001027 -0.00001967 -0.00006190
0.32485226 0.37001425 0.75866860 0.00006427 0.00001016 0.00008098
0.64712358 0.30420223 0.54643255 -0.00001594 0.00001867 -0.00000504
0.34718665 0.67816752 0.11443513 0.00009912 -0.00005865 -0.00006998
0.60845548 0.25627583 0.48265436 -0.00003164 -0.00009151 0.00000982
0.36656341 0.44698030 0.64668947 -0.00002474 -0.00002936 0.00004555
0.35743052 0.66593975 0.58565068 -0.00005411 0.00006130 0.00001954
0.64246845 0.28522003 0.89222747 -0.00000829 -0.00013029 0.00000751
0.34106049 0.38543966 0.50662255 -0.00005357 0.00001846 -0.00002058
0.30737484 0.36705935 0.71636462 -0.00014897 -0.00001178 0.00003184
0.42749217 0.31610993 0.52789593 -0.00001386 -0.00003474 -0.00008896
0.40869913 0.43315235 0.50902015 -0.00001775 -0.00001686 -0.00001921
0.54446006 0.73947549 0.58795458 -0.00000688 0.00007233 0.00000977
0.35031244 0.59599179 0.52779680 0.00001904 0.00001169 -0.00002029
0.41837296 0.49797159 0.66558158 -0.00002445 -0.00000729 0.00004680
0.38038588 0.64205617 0.53660780 0.00001494 -0.00001345 -0.00000274
0.30062589 0.46237570 0.61901724 -0.00010539 -0.00001940 0.00005749
0.52732629 0.61218184 0.51020849 -0.00000009 -0.00000454 -0.00003446
0.51404655 0.66822183 0.51721376 0.00000820 0.00000052 -0.00004154
0.31894889 0.41192812 0.56914878 -0.00009039 -0.00001334 0.00000641
0.70239985 0.29544848 0.62064189 0.00010190 0.00002054 0.00000812
0.51673049 0.73587775 0.60808504 -0.00001169 0.00008210 0.00000672
0.34570554 0.66373867 0.27607721 -0.00007241 -0.00001533 -0.00008047
0.67845625 0.73351473 0.78104204 0.00008126 0.00008573 0.00008466
0.29311866 0.64300811 0.80113614 -0.00002686 -0.00010166 0.00005379
0.68667626 0.48897415 0.53489125 0.00001701 -0.00001209 -0.00007386
0.46826136 0.70956296 0.65277106 -0.00001499 0.00000381 0.00008969
0.36426041 0.65530312 0.50266671 0.00005695 0.00005133 -0.00001931
0.63768703 0.26207468 0.42332307 0.00002497 0.00002713 -0.00005876
0.59950721 0.28979510 0.55395615 0.00000794 0.00003141 -0.00003000
0.45031476 0.30077907 0.53098714 -0.00000922 -0.00005705 -0.00010168
0.36325666 0.33496752 0.30822268 0.00004105 -0.00004694 -0.00004102
0.68583798 0.30689797 0.73106265 0.00002112 0.00006198 0.00002977
0.71770614 0.67670465 0.59534633 0.00009754 0.00001025 0.00000762
0.65896398 0.35584262 0.54302126 0.00001269 -0.00004061 -0.00005171
0.34877592 0.31946757 0.25699502 -0.00011791 -0.00005630 -0.00005458
0.56298214 0.59022206 0.51149219 0.00000307 0.00000647 -0.00004065
0.67390388 0.30870178 0.77589965 0.00006299 0.00006414 0.00002655
0.45957580 0.72410554 0.60432100 -0.00002099 0.00007804 0.00001008
0.64988291 0.73400760 0.93172103 0.00002097 0.00012330 0.00015163
0.30066407 0.65871900 0.81792802 0.00008599 0.00002707 0.00007756
0.57513809 0.29018149 0.65962732 0.00001278 0.00001778 0.00008124
0.33236039 0.58614433 0.52434552 -0.00000530 0.00000947 -0.00006107
0.70355362 0.43039748 0.54826826 0.00003246 -0.00002464 -0.00008538
0.40473410 0.50688714 0.50243759 -0.00000282 -0.00000234 -0.00002956
0.50006133 0.58126926 0.50449324 -0.00000714 0.00000033 -0.00003431
0.27501115 0.33839339 0.84085524 -0.00002030 -0.00015089 0.00003580
0.73135859 0.45103529 0.65948176 0.00008666 -0.00002284 0.00003357
0.46909326 0.34085456 0.51526904 0.00000314 -0.00000827 -0.00005256
0.42328531 0.51894397 0.66696995 -0.00002002 -0.00000244 0.00004775
0.40363580 0.68793958 0.33737782 0.00006752 -0.00001324 -0.00000104
0.48371676 0.74414688 0.38378039 -0.00003157 0.00014267 0.00004269
0.42551649 0.35173577 0.51795024 -0.00001571 -0.00001396 -0.00004425
0.30698478 0.48648572 0.53379565 -0.00010949 -0.00001341 -0.00002008
0.62315446 0.70543796 0.91123784 -0.00007740 -0.00000679 0.00006661
0.49214137 0.54727262 0.68164432 -0.00000923 0.00000274 0.00005106
0.60910016 0.74751002 0.47207409 -0.00002586 0.00007994 0.00001034
0.51782703 0.57107079 0.68407464 -0.00001011 0.00000895 0.00005017
0.29298681 0.41548580 0.07955480 0.00007356 0.00003302 0.00000679
0.63950270 0.52761763 0.69321293 0.00000599 -0.00000090 0.00005535
0.54591566 0.29843065 0.53652233 0.00002744 -0.00000241 -0.00005606
0.34489912 0.35597718 0.33966902 -0.00006535 -0.00004247 -0.00001420
0.48410314 0.69714701 0.65965456 -0.00001044 0.00002509 0.00007325
0.70438373 0.34957829 0.56103331 0.00007597 -0.00002504 -0.00008402
0.53756291 0.43938309 0.50467139 0.00000952 -0.00000791 -0.00004397
0.63269556 0.23753552 0.41034523 0.00000133 -0.00007512 0.00001903
0.65883034 0.27009377 0.73619604 -0.00002764 -0.00010523 0.00003579
0.25980487 0.56655306 0.05962889 -0.00013227 0.00003494 0.00006341
0.34770033 0.35540622 0.35128668 -0.00004722 -0.00004703 -0.00001120
0.64003640 0.69783980 0.55809844 -0.00000015 -0.00001993 0.00000129
0.59165633 0.44344169 0.51336151 0.00000386 -0.00000868 -0.00004917
0.73138499 0.54863644 0.65599775 0.00008200 0.00002041 0.00002058
0.31526482 0.45858160 0.31417975 0.00005628 -0.00005379 -0.00006528
0.37145030 0.67902493 0.59778392 -0.00006022 0.00005943 0.00000211
0.69538176 0.27255404 0.62092465 0.00007888 -0.00015439 0.00002202
0.50000137 0.45956898 0.68214715 -0.00000845 -0.00001200 0.00005170
0.63151997 0.27239856 0.54566973 0.00002020 -0.00003681 -0.00000255
0.40853181 0.34490865 0.64695221 -0.00002539 -0.00000940 0.00006870
0.45341513 0.73487312 0.37988266 -0.00005025 0.00012445 0.00003582
0.26170236 0.66501969 0.90352148 -0.00006705 -0.00002320 0.00022210
0.58995068 0.26698884 0.59965861 0.00003006 -0.00009577 -0.00001018
0.55037522 0.39700460 0.51256961 0.00000909 -0.00001796 -0.00003975
0.63186002 0.68816686 0.67357254 0.00001486 0.00001210 0.00003985
0.64464325 0.51356244 0.69329566 0.00000583 -0.00000231 0.00005659
0.58045143 0.32520911 0.53529948 0.00001402 -0.00001716 -0.00003245
0.69468719 0.70996577 0.69990820 0.00008361 0.00000302 0.00004042
0.35069340 0.71117854 0.15599625 -0.00011337 0.00012327 -0.00004684
0.63562405 0.25849155 0.49155816 0.00002279 -0.00012628 -0.00003168
0.50666296 0.47351333 0.68356818 -0.00000519 -0.00000644 0.00005038
0.61499262 0.39881480 0.68462014 0.00000407 -0.00001581 0.00004597
0.71399391 0.35514256 0.60664761 0.00008423 -0.00002610 -0.00000083
0.72163844 0.58725172 0.65346932 0.00006960 0.00003277 0.00001436
0.65658015 0.42839363 0.53133810 0.00000350 -0.00002286 -0.00006085
0.42636567 0.31386057 0.37206361 0.00004349 0.00004125 -0.00002178
0.61645281 0.23751824 0.41018069 0.00003700 -0.00011157 -0.00004593
0.63826436 0.27453882 0.91630566 -0.00010524 -0.00017016 -0.00001372
0.38907689 0.67214686 0.34666434 0.00004799 0.00000397 -0.00003183
0.69940859 0.67630827 0.65322018 0.00005976 0.00002226 -0.00001202
0.57785207 0.65858352 0.67715657 0.00000173 0.00001400 0.00004819
0.71022618 0.73305750 0.59268421 0.00009606 0.00015720 0.00001715
0.62327540 0.30213833 0.86094755 -0.00011006 -0.00000528 0.00003567
0.27663678 0.37349281 0.07520612 -0.00015809 -0.00009699 -0.00003122
0.40046635 0.67765021 0.36839956 0.00002450 -0.00000376 -0.00001066
0.69127226 0.70558250 0.71878040 0.00006318 -0.00002906 0.00004667
0.34510458 0.61921811 0.53233820 0.00004065 -0.00003103 -0.00003795
0.58276898 0.74440324 0.37495393 0.00003979 -0.00003555 -0.00013107
0.32890090 0.34698707 0.15699272 -0.00000737 0.00003837 -0.00002745
0.72757000 0.46119919 0.55888128 0.00007287 -0.00002775 -0.00009116
0.71995002 0.58129197 0.67297244 0.00009390 0.00003522 -0.00001398
0.39055613 0.47371152 0.65724796 -0.00002588 -0.00001112 0.00005105
0.62736130 0.31452611 0.83692205 -0.00004961 0.00002482 0.00001646
0.45748469 0.72241718 0.64502382 -0.00004233 0.00008939 0.00005046
0.36639521 0.33287638 0.23567897 0.00007620 0.00003823 -0.00008581
0.33589265 0.50872004 0.51156855 -0.00001688 -0.00000040 -0.00005864
0.33727095 0.39044657 0.41909987 -0.00006974 -0.00005253 -0.00001247
0.52871639 0.46065184 0.68592751 -0.00000731 -0.00000602 0.00004994
0.34838313 0.60065055 0.35316873 0.00004233 -0.00003294 -0.00001588
0.37326780 0.68700677 0.19759734 0.00007020 -0.00006557 -0.00007788
0.60093462 0.73646778 0.38532510 0.00002016 -0.00010021 -0.00002145
0.73736382 0.57000256 0.57594502 0.00011487 0.00002726 -0.00002563
0.72986209 0.58773816 0.62572253 0.00007111 0.00002937 0.00003310
0.49198225 0.28071499 0.61767614 -0.00001022 -0.00008863 0.00001258
0.50740486 0.25457290 0.38485596 -0.00001398 -0.00015283 0.00001748
0.31564122 0.63393891 0.70887381 -0.00010127 -0.00006524 0.00004556
0.67185003 0.53389657 0.69223642 0.00000374 -0.00000714 0.00006483
0.65608543 0.40479732 0.68593484 0.00000376 -0.00001446 0.00005624
0.30436084 0.54043370 0.55821300 -0.00009678 0.00001776 -0.00003290
0.52871639 0.54175657 0.68734229 -0.00000901 -0.00000149 0.00005154
0.63709152 0.73839986 0.40506464 -0.00000129 -0.00008407 0.00002887
0.65983140 0.49537855 0.52593023 0.00001956 -0.00000350 -0.00006404
0.56292486 0.72472286 0.65733612 0.00001191 -0.00001228 0.00006485
0.61545813 0.27724731 0.55557543 0.00000161 0.00001435 -0.00004458
0.60185289 0.75767207 0.37811792 0.00002376 0.00007447 -0.00015091
0.51359928 0.27728277 0.63685924 -0.00002587 -0.00010045 -0.00003707
0.32324299 0.65785432 0.08339705 0.00014954 -0.00004527 -0.00009927
0.71882534 0.62366587 0.62388140 0.00005916 0.00002272 0.00002192
0.33908299 0.39851114 0.63075495 0.00001719 -0.00001801 0.00004983
0.64385504 0.72258264 0.48559651 0.00004630 -0.00004857 -0.00006697
0.62183708 0.69806623 0.89420223 -0.00007536 -0.00002472 0.00005032
0.42395720 0.30183923 0.55429530 -0.00004778 -0.00009165 -0.00001238
0.36887273 0.38205200 0.39157856 0.00004639 -0.00000309 -0.00002262
0.65429527 0.23641448 0.42872280 0.00005391 -0.00011295 0.00007797
0.71556407 0.59284055 0.55594093 0.00004007 0.00001326 -0.00008381
0.32516229 0.63884938 0.64924610 -0.00010124 0.00002083 0.00002066
0.74645305 0.47648367 0.61361295 0.00011728 -0.00001659 0.00000719
0.41539168 0.64324355 0.52426457 -0.00002035 -0.00000692 -0.00001630
0.70332360 0.66723633 0.55802846 0.00003194 0.00002155 -0.00009447
0.33632267 0.60117149 0.63205963 -0.00001863 0.00002442 0.00004923
0.33721823 0.64620936 0.30756170 -0.00009942 0.00000691 -0.00006185
0.44944832 0.29131982 0.54701716 -0.00002307 -0.00011556 -0.00001924
0.69138765 0.29589486 0.72407103 0.00011146 -0.00000121 0.00004444
0.31581670 0.53058982 0.31240952 0.00012987 -0.00001777 -0.00005674
0.71932000 0.40789858 0.65495676 0.00007632 -0.00003158 0.00002100
0.63307559 0.70400143 0.93562061 0.00000654 -0.00012146 0.00003478
0.37296775 0.69962090 0.26152918 0.00006440 0.00011376 -0.00003079
0.48649162 0.26112637 0.37614587 -0.00002667 -0.00012497 -0.00005342
0.60956198 0.30343848 0.66456699 0.00001256 -0.00002472 0.00004943
0.44547695 0.36362988 0.51338243 -0.00000358 -0.00000688 -0.00004039
0.31353372 0.59199411 0.57459760 -0.00009162 0.00002412 -0.00000306
0.34826314 0.33874524 0.18483044 0.00001795 0.00002830 -0.00004479
0.53105938 0.61109173 0.68096972 -0.00000392 0.00001149 0.00004926
0.66629213 0.74140477 0.70281041 -0.00000471 0.00009329 0.00002559
0.56098014 0.53181452 0.50371772 0.00000764 0.00000147 -0.00004939
0.39986902 0.32308707 0.53368837 -0.00003709 -0.00005903 -0.00008840
0.34413537 0.64406461 0.30175376 -0.00005137 -0.00003223 -0.00008939
0.54711127 0.24979237 0.39896396 -0.00000060 -0.00005400 0.00006172
0.36548963 0.37911436 0.44461280 0.00006532 -0.00003401 -0.00002958
0.61838031 0.76301086 0.38382858 0.00002967 0.00012477 -0.00011543
0.69295603 0.70304495 0.70206940 0.00005704 -0.00002835 0.00004017
0.61710197 0.30424583 0.54968566 -0.00000776 0.00001804 0.00001318
0.49758378 0.72228348 0.37462389 0.00002644 -0.00007898 -0.00006364
0.46406633 0.34782353 0.66059470 -0.00001559 -0.00002398 0.00005957
0.74790412 0.50951833 0.61271197 0.00010603 -0.00000914 0.00002298
0.56828636 0.58840460 0.68687582 -0.00000286 0.00000682 0.00004831
0.31684229 0.35866022 0.77267653 0.00005167 -0.00005812 0.00008599
0.35540304 0.67071670 0.23975399 0.00000112 -0.00008846 -0.00005120
0.36882910 0.62280941 0.51761019 0.00001005 -0.00001361 0.00001684
0.31961715 0.43463436 0.34864366 -0.00007572 -0.00002992 0.00000587
0.33543712 0.32282704 0.21012697 -0.00005338 -0.00008522 -0.00002816
0.32156098 0.40637839 0.58406866 -0.00007387 -0.00002913 0.00001282
0.68785727 0.45952263 0.68987799 0.00000041 -0.00000669 0.00007162
0.49126941 0.71314430 0.65535676 -0.00002133 0.00000302 0.00008091
0.38505459 0.69687968 0.32162330 0.00002353 0.00010239 -0.00009095
0.62247527 0.48597473 0.51724559 0.00001905 -0.00000281 -0.00005066
0.36106005 0.36712027 0.38617614 0.00006637 -0.00004987 -0.00000833
0.50706398 0.57066435 0.68228263 -0.00000807 0.00000445 0.00004981
0.37499073 0.65741700 0.30174741 0.00004956 -0.00003925 -0.00005070
0.57335424 0.30972102 0.66444874 -0.00000406 -0.00001248 0.00005906
0.35536665 0.61654055 0.50391680 -0.00000054 -0.00002756 0.00001450
0.34427449 0.64448917 0.53986728 -0.00006369 0.00003655 -0.00000062
0.35225815 0.62880284 0.67704564 0.00002741 -0.00000084 0.00005105
0.40456590 0.53558677 0.66126198 -0.00002610 -0.00000150 0.00004752
0.34482908 0.64819872 0.36060774 -0.00006699 0.00004361 -0.00000701
0.28024358 0.56060052 0.05204076 0.00009129 -0.00000806 -0.00011455
0.47866073 0.61945814 0.67168772 -0.00001331 0.00001232 0.00004871
0.55320102 0.73884445 0.37357014 0.00001015 -0.00006594 -0.00011700
0.71412027 0.36826038 0.62401778 0.00007315 -0.00003358 0.00001449
0.27472836 0.60150880 0.05392462 -0.00006521 0.00004133 -0.00013328
0.62288445 0.71495086 0.48886874 -0.00000368 -0.00003185 -0.00002745
0.64851826 0.29821879 0.94899213 0.00015794 0.00008448 0.00004796
0.33581445 0.65422666 0.69955367 0.00003417 0.00009152 0.00007985
0.30426720 0.37270364 0.07925931 0.00011797 0.00002002 -0.00009225
0.47578490 0.39321870 0.67043853 -0.00001515 -0.00001637 0.00005137
0.68643171 0.60907966 0.68013871 0.00001865 0.00000718 0.00005955
0.59709698 0.27326778 0.62787092 -0.00000309 -0.00006518 0.00002640
0.59113264 0.27320141 0.63250238 -0.00000697 -0.00007716 0.00000145
0.71386659 0.68604845 0.56826413 0.00008998 0.00002027 -0.00008623
0.35765418 0.64175248 0.65423667 -0.00000156 0.00000454 0.00003215
0.59704423 0.44613108 0.51379609 0.00000728 -0.00000952 -0.00005148
0.63806069 0.28003672 0.94101667 -0.00003996 -0.00021674 0.00001637
0.73802841 0.54744262 0.57065803 0.00011274 0.00000034 -0.00004082
0.31492114 0.44447729 0.33904892 -0.00008350 -0.00003532 -0.00000748
0.39868888 0.41837341 0.65238553 -0.00002868 -0.00001776 0.00003738
0.26168326 0.56847960 0.04952502 -0.00010024 0.00004311 -0.00010391
0.64067554 0.25026423 0.43699375 0.00000510 0.00001550 0.00000667
0.39677501 0.39710826 0.52315265 -0.00001353 -0.00001042 -0.00000826
0.70919698 0.40614018 0.68022054 -0.00000422 -0.00002403 0.00007646
0.29920390 0.48823774 0.60617304 -0.00009857 -0.00001018 -0.00006629
0.30427992 0.52860957 0.31108120 -0.00008965 0.00000159 -0.00004920
0.32972375 0.36971152 0.64048785 -0.00010051 -0.00004326 0.00002265
0.66355002 0.72460014 0.81855178 0.00008124 0.00006156 0.00007789
0.57023293 0.34071547 0.67185867 0.00000218 -0.00001869 0.00004913
0.32972738 0.35904026 0.69582415 0.00003347 -0.00011711 0.00007576
0.69524354 0.61100262 0.54693353 0.00001433 0.00001332 -0.00008232
0.67914081 0.30806082 0.75725472 0.00003686 0.00006318 0.00003489
0.72499245 0.63126314 0.59994316 0.00008375 0.00003095 0.00001982
0.42224520 0.43010563 0.50641799 -0.00001712 -0.00001369 -0.00002448
0.52373856 0.48865595 0.49931902 0.00000325 -0.00000429 -0.00004605
0.38179785 0.38104731 0.64259440 -0.00003836 -0.00000033 0.00003105
0.32915914 0.64976251 0.11462153 0.00004861 -0.00003600 -0.00004400
0.62533289 0.27413875 0.45932537 0.00004237 0.00001504 -0.00007753
0.33147666 0.58254665 0.63123769 -0.00002922 0.00001333 0.00005836
0.28256655 0.56525922 0.10322113 0.00001037 -0.00002417 0.00006612
0.44185925 0.59332967 0.50784910 -0.00001327 0.00000632 -0.00002376
0.70303446 0.32662204 0.62282127 0.00006050 -0.00000632 0.00002050
0.34629291 0.67842668 0.18962827 -0.00007485 -0.00007390 -0.00005064
0.37824836 0.69790798 0.20025764 0.00011764 -0.00002327 -0.00006980
0.64531696 0.27431333 0.66591257 0.00000843 -0.00006947 0.00006724
0.32686615 0.62024826 0.56253254 -0.00008080 0.00004032 -0.00000703
0.50505191 0.25551301 0.37973174 -0.00000710 -0.00014902 -0.00002020
0.69782299 0.73414028 0.64137614 0.00006223 0.00008940 0.00003235
0.64493239 0.35672182 0.67624372 0.00000658 -0.00002628 0.00003833
0.41718006 0.61012161 0.65725696 -0.00002286 0.00000816 0.00004118
0.64242941 0.70459419 0.54091555 0.00000114 -0.00000538 -0.00002802
0.28497952 0.34365487 0.85153639 0.00008562 -0.00004762 0.00007766
0.40623975 0.70508879 0.57862800 -0.00003987 0.00008787 -0.00000771
0.33469340 0.39244133 0.40097144 -0.00008305 -0.00001850 -0.00000266
0.56179202 0.60068870 0.51257777 0.00000080 0.00000367 -0.00004038
0.38591650 0.66803735 0.33258456 0.00003658 -0.00002861 -0.00002629
0.33882752 0.40413633 0.32043681 0.00007816 0.00001180 -0.00005067
0.60119927 0.48113418 0.51213956 0.00001495 -0.00000790 -0.00004720
0.71787161 0.58666897 0.67484087 0.00008450 0.00004283 0.00000724
0.27433833 0.38791811 0.09223353 -0.00010548 -0.00002707 -0.00000211
0.35946804 0.34276387 0.61281103 -0.00006716 -0.00007503 -0.00002743
0.49742737 0.44230977 0.50155658 -0.00000240 -0.00001360 -0.00003948
0.31683046 0.35287863 0.09279995 0.00010669 -0.00000437 -0.00009936
0.36403221 0.39572811 0.39146036 0.00004499 0.00002392 -0.00002772
0.32545140 0.48894420 0.33728600 0.00007711 0.00000741 -0.00002368
0.68155926 0.53912807 0.53436935 0.00002035 0.00000710 -0.00006679
0.36142918 0.67175865 0.20917051 0.00000041 -0.00004174 -0.00006393
0.71329927 0.44055501 0.55245596 0.00005950 -0.00001209 -0.00008160
0.34376991 0.38000721 0.41291824 -0.00008259 -0.00003772 -0.00000280
0.30756304 0.62045097 0.07712726 0.00008709 -0.00005461 -0.00000826
0.34681115 0.62406957 0.31501529 0.00003671 -0.00000397 -0.00008538
0.42573288 0.62416589 0.51730835 -0.00001472 0.00000178 -0.00001733
0.63101536 0.53205359 0.69332480 0.00000335 -0.00000238 0.00005452
0.63929719 0.26559779 0.51830935 -0.00002805 -0.00008997 0.00002899
0.67951363 0.72418827 0.78528613 0.00011801 -0.00001904 0.00007384
0.27990168 0.57766247 0.05139796 0.00010116 -0.00001975 -0.00013961
0.31523848 0.35587630 0.72326905 -0.00002765 -0.00012736 0.00004878
0.65757930 0.29767689 0.90996128 0.00013381 0.00000814 -0.00001574
0.66285717 0.27204126 0.62852466 0.00002902 -0.00008609 0.00001649
0.45736650 0.56429547 0.67273605 -0.00001203 0.00000772 0.00004641
0.62692302 0.75336528 0.38198930 0.00006097 0.00001245 -0.00017801
0.30646020 0.37336281 0.71980596 -0.00012886 0.00004163 0.00003538
0.67971087 0.30813265 0.73189372 -0.00003803 0.00006565 0.00001566
0.25305226 0.34317026 0.89578420 -0.00017242 -0.00011809 0.00006366
0.65152311 0.31108570 0.90031743 0.00006318 0.00005391 0.00005179
0.63792431 0.73390937 0.93659979 0.00000498 0.00015931 0.00005569
0.57597274 0.27685180 0.65606415 -0.00000082 -0.00005321 0.00008130
0.32666978 0.32223788 0.10938729 0.00011189 -0.00007163 -0.00014513
0.33304229 0.63985592 0.74463606 0.00005815 -0.00000572 0.00008438
0.30943415 0.49720237 0.30598336 0.00004349 -0.00000950 -0.00009110
0.28482044 0.36511096 0.10067540 -0.00010715 -0.00004790 -0.00001459
0.46190429 0.37671775 0.51068580 -0.00001230 -0.00001434 -0.00003604
0.59944177 0.58487147 0.68921065 0.00000494 0.00001028 0.00005039
0.55901802 0.51433617 0.50236303 0.00000172 -0.00000241 -0.00005249
0.35442746 0.66438597 0.57621872 -0.00007546 0.00006055 0.00001418
0.63034981 0.74139386 0.50460690 -0.00000460 0.00009106 0.00001028
0.65559906 0.27174851 0.71453446 -0.00006092 -0.00005178 0.00002751
0.37465703 0.67514628 0.36011678 -0.00000234 -0.00000273 0.00002243
0.62936974 0.30079725 0.82397151 -0.00010152 -0.00000224 0.00001363
0.31346005 0.59759748 0.62053013 -0.00009303 0.00002969 0.00004307
0.52671343 0.32400265 0.66578984 -0.00000795 -0.00002049 0.00006394
0.34450361 0.61628139 0.39208862 -0.00000688 -0.00007252 -0.00002535
0.33634633 0.36542007 0.61852717 -0.00007788 -0.00006968 0.00000684
0.42923325 0.40072137 0.65987188 -0.00002694 -0.00001189 0.00004423
0.35016516 0.64533013 0.46692714 -0.00004237 0.00005937 -0.00002080
0.26315978 0.56079596 0.08466992 -0.00009233 0.00002317 -0.00002346
0.61071581 0.51445705 0.69388485 0.00000765 0.00000033 0.00005401
0.33845472 0.59673369 0.32685119 0.00008249 -0.00006131 -0.00003304
0.27923709 0.36587197 0.84768599 0.00001904 0.00007041 0.00007595
0.70741403 0.64695495 0.63738930 0.00005605 0.00000634 0.00001158
0.36693615 0.64183700 0.48254529 0.00005196 0.00002411 -0.00002535
0.33866474 0.36342260 0.61372846 -0.00007504 -0.00007283 0.00000228
0.31548759 0.38301665 0.70872563 -0.00008692 0.00006840 0.00005915
0.35880435 0.41079980 0.63778841 -0.00002109 -0.00003736 0.00002917
0.65872943 0.27617899 0.78920478 -0.00003820 -0.00014722 0.00006617
0.64517063 0.65771431 0.54191566 0.00000437 0.00003727 -0.00003104
0.35194263 0.65647143 0.63203597 0.00001868 0.00000565 0.00005032
0.66664308 0.28035676 0.56339449 -0.00003230 0.00009236 -0.00006932
0.41209587 0.31127936 0.63901860 -0.00002944 -0.00003863 0.00009516
0.31393832 0.51621908 0.62771547 -0.00004518 0.00001170 0.00008335
0.37153578 0.33443290 0.59848124 -0.00005355 -0.00007130 -0.00000120
0.61950588 0.38969648 0.52740133 0.00001940 -0.00002076 -0.00004526
0.38518187 0.69082445 0.58061373 -0.00005123 0.00006787 0.00002229
0.65123129 0.73694694 0.42748085 -0.00001706 -0.00006321 -0.00001985
0.42004219 0.43394607 0.66118473 -0.00002251 -0.00001503 0.00004329
0.53282958 0.73967999 0.58067101 -0.00001173 0.00007973 0.00000723
0.26567373 0.58167565 0.07113658 -0.00010654 0.00004662 -0.00001652
0.69622189 0.71454531 0.68668216 0.00009374 -0.00000286 0.00002087
0.36608970 0.40115416 0.43497986 0.00004880 0.00000673 -0.00001973
0.58064413 0.75725019 0.40370449 -0.00000779 -0.00000201 0.00005532
0.66411370 0.26949278 0.74973667 -0.00000220 -0.00014974 0.00004171
0.33329052 0.60650307 0.63098037 0.00001933 0.00001528 0.00006951
0.35638678 0.61581862 0.35667822 0.00001525 -0.00000580 -0.00001241
0.34131870 0.41612041 0.33555397 0.00005579 0.00002595 -0.00002759
0.56236845 0.69676965 0.53547859 0.00002016 0.00001243 -0.00002907
0.38117051 0.45673320 0.50956470 -0.00000956 -0.00001404 -0.00002330
0.37861478 0.68350631 0.28657115 0.00006139 0.00005447 -0.00001318
0.42832133 0.71402341 0.54021364 -0.00004707 0.00006077 -0.00009495
0.48220387 0.68336087 0.52089697 0.00000308 0.00001312 -0.00004424
0.64043093 0.27967122 0.48598751 0.00006185 0.00002398 -0.00008665
0.65123677 0.30240202 0.87994969 0.00010421 0.00000809 0.00002795
0.62452739 0.29341730 0.50463414 0.00000020 0.00001638 -0.00003166
0.46330807 0.29396287 0.37093803 0.00004406 0.00007014 -0.00003978
0.67152447 0.26979554 0.69429302 -0.00003893 -0.00012948 0.00001049
0.41906393 0.57496852 0.66133201 -0.00002206 0.00000814 0.00004116
0.34513551 0.37789968 0.48649302 -0.00008234 -0.00003524 -0.00000297
0.33904845 0.38837361 0.48912606 -0.00007777 -0.00000326 0.00000566
0.63521492 0.27155304 0.60643756 0.00001361 -0.00006783 -0.00002267
0.59868622 0.27021471 0.47585177 -0.00006232 -0.00000288 -0.00001738
0.41368058 0.63923764 0.65296745 -0.00002582 0.00000608 0.00004507
0.67798162 0.27308592 0.63105679 -0.00001329 -0.00009647 0.00002802
0.32385764 0.63936317 0.11793462 0.00003869 -0.00004551 -0.00002278
0.33723095 0.62228847 0.32944056 -0.00004287 0.00004751 0.00002235
0.48214838 0.39004925 0.67105955 -0.00001321 -0.00001694 0.00005141
0.48145467 0.53138900 0.68086970 -0.00000659 0.00000053 0.00005297
0.31670135 0.59551722 0.56202620 -0.00008073 0.00002199 0.00000727
0.34483635 0.66833639 0.13405465 0.00005285 -0.00005326 -0.00004401
0.41197768 0.47743192 0.50156200 -0.00000858 -0.00000578 -0.00003174
0.74031329 0.49543491 0.64257348 0.00008862 0.00000603 0.00000816
0.38670388 0.69981456 0.34368765 -0.00004619 0.00005784 -0.00001908
0.50891143 0.25551030 0.39193860 -0.00000375 -0.00011765 0.00003229
0.63308918 0.73364115 0.56114244 0.00001777 -0.00000112 -0.00006108
0.37662908 0.65661871 0.31723920 0.00005515 -0.00001712 -0.00002527
0.33420336 0.39213949 0.67544544 -0.00003689 0.00004645 0.00004994
0.65867215 0.51635724 0.69284290 0.00000392 0.00000241 0.00005964
0.72766912 0.44632748 0.67293340 0.00009365 -0.00002837 -0.00001569
0.34031221 0.39427611 0.67408258 -0.00002619 0.00002951 0.00004366
0.31937620 0.63503170 0.68184161 -0.00010920 -0.00005716 0.00004743
0.35404563 0.31547165 0.26673979 -0.00006891 -0.00011555 -0.00003367
0.32140917 0.41942441 0.33272910 -0.00008049 -0.00002225 0.00003621
0.29119027 0.38421223 0.06735342 0.00010035 -0.00001342 -0.00015864
0.56569791 0.33103889 0.53006524 0.00002140 -0.00001594 -0.00003401
0.66662848 0.31261680 0.76913160 -0.00000887 0.00008087 0.00001181
0.61985224 0.27494615 0.45044979 0.00002755 0.00002353 -0.00007099
0.43063435 0.36297524 0.65682602 -0.00003218 -0.00001195 0.00005884
0.34009492 0.69696426 0.11259130 0.00002590 0.00011634 -0.00010911
0.37883389 0.60986161 0.64527655 -0.00003407 0.00001811 0.00002805
0.56909919 0.27336320 0.61885262 -0.00000070 -0.00007118 0.00001235
0.36798444 0.38367218 0.38125011 0.00004493 0.00001029 -0.00002773
0.51570314 0.27326867 0.58091104 -0.00002364 -0.00009530 -0.00000668
0.70417279 0.29095978 0.61685425 0.00012033 0.00002322 0.00001984
0.25683361 0.43433976 0.06157458 -0.00017875 -0.00002818 -0.00002180
0.34157509 0.49974903 0.51049852 -0.00000741 -0.00000413 -0.00005291
0.54353446 0.24843130 0.39486346 -0.00000432 -0.00008984 0.00005067
0.43601951 0.30887634 0.37539488 0.00004858 0.00004170 -0.00001640
0.28975919 0.66587520 0.78173214 -0.00007598 0.00013328 0.00000087
0.66512650 0.68981522 0.67955232 0.00000264 0.00000585 0.00004441
0.59765249 0.46465322 0.51191413 0.00001457 -0.00001051 -0.00005073
0.60225213 0.74117202 0.59713382 0.00000915 0.00007043 0.00000186
0.31980807 0.64317811 0.67754751 -0.00012847 0.00002359 0.00002070
0.25894204 0.34967193 0.85367125 -0.00014735 0.00000183 0.00000569
0.63578677 0.76377279 0.41627681 0.00002634 0.00008034 -0.00000697
0.62376451 0.37549487 0.53192180 0.00001292 -0.00002187 -0.00004251
0.38044226 0.32439721 0.62626988 -0.00005193 -0.00010321 0.00001024
0.53396428 0.62187934 0.51099396 0.00000960 0.00000812 -0.00003608
0.54591203 0.60910875 0.51134402 0.00000512 0.00000367 -0.00003674
0.50740039 0.27979940 0.65404028 -0.00003958 -0.00007316 0.00008822
0.47035703 0.52233344 0.67949140 -0.00001353 -0.00000281 0.00005425
0.26062858 0.35405698 0.84761506 -0.00014755 0.00005125 0.00000436
0.66726035 0.54029822 0.69263375 0.00000424 -0.00000870 0.00006496
0.61812478 0.31513163 0.66947657 0.00001518 -0.00001115 0.00004889
0.61112404 0.29343367 0.54598522 -0.00002356 0.00000865 0.00000028
0.31324548 0.36329713 0.78493160 0.00005942 -0.00001688 0.00010048
0.70380914 0.37428111 0.67210144 0.00003751 -0.00003391 0.00006981
0.63062799 0.23501979 0.40575743 -0.00001286 -0.00011245 0.00005094
0.59281009 0.55765563 0.51284599 0.00001615 0.00000980 -0.00004286
0.66160250 0.56690395 0.53017253 0.00002199 0.00001255 -0.00006054
0.34891683 0.44502008 0.63963139 -0.00002878 -0.00003107 0.00004881
0.30856681 0.33762604 0.13579938 -0.00007791 -0.00006346 -0.00001402
0.34907684 0.64722949 0.40233070 -0.00003987 0.00005716 -0.00000792
0.34026495 0.66612256 0.11174484 0.00007960 -0.00006139 -0.00003030
0.41829929 0.49477300 0.50096649 -0.00000759 -0.00000364 -0.00003077
0.30182421 0.39267954 0.09294450 0.00005645 0.00003709 -0.00001916
0.56386679 0.64740407 0.51971406 0.00000882 0.00000920 -0.00003683
0.53176945 0.54252118 0.50141108 0.00000485 0.00000252 -0.00004413
0.60761815 0.72023141 0.46446595 -0.00000442 -0.00002720 -0.00003334
0.31136346 0.32177693 0.10584599 -0.00008296 -0.00014368 -0.00002769
0.27428833 0.39944944 0.10827079 -0.00009718 -0.00002163 0.00001425
0.39175534 0.66582251 0.53297287 -0.00000749 -0.00002543 -0.00004477
0.63444304 0.27252495 0.59122765 0.00000272 -0.00005307 -0.00001050
0.66355270 0.52143604 0.52710944 0.00001917 -0.00000969 -0.00006472
0.67077351 0.70319861 0.79755026 0.00008694 -0.00002809 0.00005422
0.66191792 0.31202218 0.69392031 0.00002064 0.00001317 0.00003053
0.64284128 0.69100904 0.82163572 -0.00000937 -0.00008353 0.00002524
0.32344213 0.51137578 0.32668388 0.00006973 -0.00000539 -0.00005921
0.30284068 0.53209543 0.58458781 -0.00008826 -0.00000216 -0.00000520
0.65760201 0.74123108 0.73594874 -0.00006291 0.00005407 0.00001970
0.46519461 0.72481924 0.63900310 -0.00002597 0.00009848 -0.00001540
0.32004446 0.68262899 0.10655788 -0.00017278 0.00004304 0.00003810
0.39018789 0.42559057 0.51596093 -0.00000492 -0.00001754 -0.00001441
0.36971286 0.61419576 0.64201713 -0.00003366 0.00002255 0.00002486
0.65683734 0.26827446 0.59602916 -0.00002062 -0.00008433 -0.00000256
0.36993289 0.67701924 0.55167592 -0.00007052 0.00006561 -0.00002211
0.71656150 0.42135555 0.55859029 0.00006656 -0.00001486 -0.00008402
0.46778131 0.69495672 0.52470464 0.00000468 0.00001282 -0.00005649
0.33652544 0.62991387 0.39191222 -0.00005661 0.00004256 -0.00002110
0.29062381 0.58528972 0.06089631 0.00008525 -0.00001845 -0.00006978
0.64175206 0.72963160 0.80844516 -0.00004519 0.00008290 0.00002045
0.36761168 0.36694297 0.63806027 -0.00003816 0.00000647 0.00005208
0.69732386 0.71791482 0.67577726 0.00010344 -0.00002814 0.00003698
0.65826571 0.73843074 0.69510496 -0.00004258 0.00004805 0.00003940
0.30478454 0.44185609 0.61722153 -0.00010334 -0.00003782 0.00003117
0.62453097 0.55826300 0.69288838 -0.00000196 0.00000832 0.00005543
0.35372740 0.37233907 0.66337866 0.00000655 -0.00004430 0.00003884
0.34330985 0.31104389 0.21162260 -0.00011796 -0.00005824 -0.00001070
0.31842974 0.40397266 0.61338651 -0.00009232 -0.00004970 0.00001026
0.63194549 0.28403172 0.48109332 0.00001272 0.00004364 -0.00006182
0.37467796 0.35679093 0.34904370 0.00002408 -0.00000518 -0.00004157
0.68935925 0.38037723 0.67543000 -0.00001484 -0.00001878 0.00006086
0.28590691 0.59182954 0.10792077 -0.00001904 -0.00002605 0.00006468
0.38055229 0.34931734 0.36012405 0.00003389 -0.00001120 -0.00001954
0.52527153 0.72619939 0.38067096 0.00003124 -0.00008425 -0.00001663
0.71000075 0.30973101 0.59284878 0.00011106 -0.00003081 0.00001687
0.61573911 0.27744645 0.65684241 -0.00001041 -0.00003260 0.00008363
0.62446368 0.29677865 0.90834111 -0.00011105 0.00001141 0.00005405
0.59512126 0.40292254 0.68503016 0.00000534 -0.00001805 0.00004611
0.73069221 0.59376156 0.61499488 0.00007471 0.00003639 0.00001560
0.41342419 0.30674976 0.59277689 -0.00004194 -0.00008509 0.00000204
0.47537851 0.67108309 0.66343498 -0.00001438 0.00001102 0.00006232
0.29947847 0.34042358 0.08570095 -0.00002152 -0.00011710 -0.00015507
0.37742648 0.55130398 0.50886738 -0.00001000 0.00000465 -0.00002525
0.41101483 0.68489927 0.37326282 0.00002682 -0.00000309 0.00001220
0.35529029 0.64728129 0.40662208 0.00002630 0.00006876 -0.00001759
0.48262477 0.32085773 0.65913993 -0.00001865 -0.00001358 0.00007525
0.30496275 0.63814843 0.74264222 -0.00009554 -0.00007502 0.00003682
0.30391899 0.66672170 0.78486973 0.00003663 0.00013823 0.00004477
0.29782647 0.33738416 0.09691950 -0.00014615 -0.00007401 0.00000969
0.65653461 0.30152553 0.54094464 -0.00000019 0.00002747 -0.00001528
0.62376541 0.24645925 0.43582541 0.00004223 -0.00000587 -0.00002761
0.31378648 0.47168040 0.52346539 -0.00006690 0.00001831 -0.00008084
0.40573788 0.65407389 0.64917976 -0.00002835 0.00000459 0.00005102
0.71357387 0.64653575 0.62299949 0.00005514 0.00002123 0.00003214
0.64742172 0.71477443 0.49944448 0.00001257 -0.00007096 -0.00003642
0.72145021 0.46439409 0.55276150 0.00005587 -0.00002408 -0.00009906
0.46605113 0.44544193 0.50243759 -0.00000278 -0.00000694 -0.00003325
0.42788038 0.44166332 0.50358677 -0.00000893 -0.00000343 -0.00003021
0.48525691 0.58745176 0.50518060 -0.00000087 0.00000475 -0.00003190
0.65464354 0.30535689 0.70231581 -0.00000934 -0.00001642 0.00003299
0.70468557 0.65994006 0.63744569 0.00005219 0.00002216 0.00000840
0.71044713 0.62530971 0.64981431 0.00006394 0.00002136 0.00001551
0.36601153 0.37947169 0.45452389 0.00006759 -0.00002759 -0.00002649
0.34145600 0.38467684 0.47360605 -0.00006897 -0.00005140 -0.00002361
0.32614607 0.43813747 0.62969029 -0.00003288 -0.00001749 0.00006947
0.62487835 0.52088147 0.51739472 0.00002196 0.00000702 -0.00005158
0.45093939 0.70394504 0.38674980 0.00000685 -0.00001883 0.00000003
0.65196323 0.69487673 0.68037421 0.00001185 0.00000318 0.00003514
0.40613335 0.31233767 0.55997956 -0.00005069 -0.00007157 -0.00001841
0.56783634 0.74110293 0.37418836 0.00001801 -0.00006448 -0.00011513
0.64855373 0.71937591 0.49352017 0.00004457 -0.00005830 -0.00005872
0.30722114 0.55264235 0.55071670 -0.00009276 0.00000536 -0.00003158
0.27401558 0.36466274 0.86801195 0.00003348 0.00009008 0.00004471
0.36260021 0.40049499 0.39989039 0.00004652 0.00001852 -0.00003572
0.32311845 0.38785991 0.73317289 -0.00002059 0.00005055 0.00005856
0.57997227 0.70725268 0.66371137 0.00001489 0.00002935 0.00005009
0.36543053 0.31112209 0.23798014 0.00012011 -0.00009833 -0.00001926
0.70064151 0.34501866 0.55893672 0.00005094 -0.00002845 -0.00009598
0.67868620 0.46619523 0.53285015 0.00001999 -0.00001052 -0.00007407
0.35806242 0.42777538 0.52270442 0.00000834 -0.00001947 -0.00001801
0.71174365 0.50170475 0.54527789 0.00004305 -0.00000548 -0.00007955
0.30884045 0.44509009 0.57392204 -0.00008766 -0.00002781 0.00000777
0.64584702 0.40480456 0.68595850 -0.00000012 -0.00001631 0.00005176
0.36274570 0.48214069 0.50789273 -0.00000474 0.00000618 -0.00003742
0.35322824 0.65159088 0.28625202 -0.00001665 -0.00005067 -0.00010206
0.53499347 0.49789882 0.68777323 -0.00000586 -0.00000500 0.00004914
0.46763945 0.67282879 0.51772928 -0.00000630 0.00000675 -0.00004407
0.59307832 0.50004178 0.50852096 0.00001415 -0.00000288 -0.00005359
0.63846892 0.75809485 0.38714716 0.00007274 0.00003781 -0.00019174
0.61996955 0.71757662 0.53655601 -0.00000312 -0.00000934 -0.00003007
0.42293981 0.34899187 0.65169001 -0.00002760 -0.00001916 0.00006183
0.56664163 0.46720624 0.69068265 -0.00000006 -0.00000805 0.00005164
0.71244282 0.69917268 0.60557842 0.00007855 0.00003233 0.00003547
0.64666349 0.24613376 0.38949558 0.00011130 -0.00001842 -0.00020350
0.57620817 0.34162101 0.67226326 0.00000428 -0.00001879 0.00004777
0.68326133 0.30522779 0.74904019 0.00004904 0.00005110 0.00003816
0.33256951 0.33396739 0.19431970 -0.00004691 0.00004473 -0.00002537
0.27927434 0.39651728 0.11485791 -0.00006554 -0.00000517 0.00004679
0.60074639 0.35663724 0.53059798 0.00000852 -0.00002113 -0.00003764
0.37171674 0.37038431 0.49411479 0.00007329 -0.00000566 -0.00004117
0.35765693 0.64253443 0.46217930 0.00005385 0.00004212 -0.00001466
0.30816585 0.64992434 0.72009510 -0.00014363 0.00002844 -0.00000388
0.69080126 0.30025995 0.72064424 0.00008651 0.00000855 0.00004408
0.34386718 0.40883231 0.33382472 0.00005258 0.00002513 -0.00002401
0.68889743 0.74039924 0.61148727 -0.00000768 0.00010787 -0.00000881
0.62033141 0.28469270 0.47580090 -0.00000826 0.00004935 -0.00004595
0.63131177 0.71500272 0.49042434 -0.00000621 -0.00005413 -0.00002281
0.61126220 0.42469868 0.68969256 0.00000702 -0.00002420 0.00004877
0.52202111 0.73694152 0.60068691 -0.00000630 0.00007875 0.00001076
0.64141023 0.64800775 0.53780067 0.00000770 0.00002992 -0.00003875
0.35386831 0.65933996 0.27337781 -0.00002508 -0.00005604 -0.00008245
0.49294326 0.61452758 0.50775546 -0.00000218 0.00000711 -0.00003363
0.39258000 0.58224577 0.51525992 -0.00000888 0.00000592 -0.00001289
0.53663915 0.37511393 0.51530087 -0.00000082 -0.00000804 -0.00003904
0.64023453 0.49998358 0.69370848 0.00000436 0.00000035 0.00005692
0.60885644 0.37211812 0.52801859 0.00001084 -0.00002062 -0.00004447
0.30293888 0.47356060 0.59155405 -0.00009394 -0.00001850 0.00000671
0.36575237 0.39500254 0.50742626 0.00000163 0.00000577 0.00001746
0.49604815 0.27375054 0.40092418 0.00003759 0.00002464 0.00005432
0.35911345 0.36870864 0.39880210 0.00004578 -0.00006637 -0.00002052
0.47289732 0.70056921 0.52583748 -0.00000763 0.00001559 -0.00006187
0.60141563 0.23814648 0.38342398 -0.00000999 -0.00016312 -0.00006215
0.31332096 0.33798969 0.15278132 -0.00007637 -0.00000856 -0.00000872
0.34141597 0.42467594 0.52337176 0.00001863 -0.00002266 -0.00004033
0.62552017 0.25445470 0.45454574 0.00006889 -0.00003504 -0.00007707
0.36463135 0.65285468 0.52467918 0.00005874 0.00000514 -0.00000600
0.29240403 0.64266443 0.78280407 -0.00008719 -0.00010016 0.00002820
0.33509710 0.38002992 0.36348262 -0.00006698 -0.00004185 -0.00001088
0.43433386 0.49763060 0.67071944 -0.00002373 -0.00000480 0.00004927
0.57278240 0.30230835 0.54244757 0.00002711 -0.00002027 -0.00003285
0.52063096 0.25466472 0.37502483 -0.00001182 -0.00011027 -0.00009088
0.40448681 0.71366429 0.35880753 -0.00006548 0.00012873 -0.00002618
0.64057100 0.73963004 0.48214707 0.00006485 0.00005550 -0.00006717
0.56896919 0.25328368 0.37341282 0.00001836 -0.00002734 -0.00016274
0.32333484 0.36115232 0.68695045 -0.00006028 -0.00012055 0.00005819
0.32455590 0.51186764 0.51692104 -0.00001901 0.00000444 -0.00007413
0.42758217 0.37123528 0.51533628 -0.00001482 -0.00000349 -0.00003202
0.36594424 0.32772398 0.32265434 -0.00004313 -0.00004378 -0.00008480
0.38613650 0.48483828 0.65541226 -0.00002618 -0.00000222 0.00004831
0.35960260 0.40723941 0.47832844 -0.00000226 0.00000748 -0.00000630
0.40529326 0.66046005 0.52846688 -0.00001494 -0.00000963 -0.00003105
