-0.037612 0.016226 -0.427400
0.009259 -0.029716 -0.285884
0.008075 0.017557 -0.036108
0.023914 0.007028 -0.207578
-0.001727 0.082647 -0.185012
-0.013880 0.009863 0.127525
0.052251 0.228297 -0.050657
0.024447 -0.002579 -0.127752
0.048247 0.133914 -0.363699
0.039258 0.100655 -0.281109
-0.009619 -0.119167 0.477350
0.021364 0.000818 -0.006739
0.002585 0.078655 -0.496897
0.021728 0.115479 -0.475289
-0.037109 0.023710 -0.450154
-0.038341 0.086815 -0.437952
-0.031892 0.167729 -0.262568
0.014099 -0.007768 0.319047
0.009651 -0.024740 -0.080150
0.045484 0.111079 -0.363201
-0.045376 0.147198 -0.285545
0.002392 0.096743 -0.060136
0.044563 0.113806 0.010703
-0.006267 0.205933 -0.093376
-0.053854 0.191136 -0.059556
-0.011506 0.011707 0.130572
0.020812 0.179186 -0.206085
0.013755 -0.026633 -0.238859
-0.042434 0.104043 -0.347609
0.012751 0.095479 -0.072678
0.027171 0.006650 -0.340031
0.022004 0.183026 -0.171888
0.073061 0.156375 -0.005223
-0.023013 0.176272 -0.228521
0.043893 0.111783 -0.103346
0.047834 0.122520 -0.346804
0.037773 0.084680 -0.465413
-0.034779 0.035799 -0.467990
-0.011550 0.240990 -0.052020
-0.005594 -0.029204 0.462688
0.062088 0.133393 -0.007304
-0.007908 -0.150118 0.430528
0.006495 0.014616 0.117383
0.056196 0.150886 -0.092329
-0.042981 0.104788 -0.235153
0.058372 0.232365 -0.047736
0.005914 0.101831 0.018695
0.008204 0.051312 -0.496569
0.002644 -0.021060 0.178465
-0.016102 0.143510 0.001892
0.047456 0.138270 -0.354517
0.002359 0.022712 -0.207455
0.003247 -0.175858 0.427636
0.011276 0.164709 -0.419435
0.018541 0.085256 -0.213460
-0.029843 -0.006239 -0.372465
-0.029745 0.090164 -0.293643
0.053650 0.140305 -0.137344
-0.022346 0.148177 -0.442384
0.001915 -0.194632 0.450946
-0.018864 0.072957 -0.418136
-0.014041 0.190898 -0.145886
0.020619 -0.019357 -0.206132
-0.025518 -0.009429 -0.444576
-0.001846 0.033322 -0.493412
0.051709 0.172953 -0.087607
-0.006359 0.022988 -0.242481
0.002283 -0.023940 0.048587
0.023294 0.092259 -0.126964
-0.013359 0.004617 0.294016
0.039693 0.100772 -0.243988
-0.040224 0.100502 -0.371556
0.047560 0.136823 -0.370071
0.048587 0.123781 -0.021221
-0.034203 0.230665 -0.056823
0.021560 0.206656 -0.081098
-0.027699 -0.014350 -0.384797
0.016578 0.046660 -0.416216
-0.027847 0.087989 -0.378863
-0.023980 0.021771 -0.391159
-0.022923 -0.017054 -0.215034
0.022897 0.008044 -0.182034
-0.001539 -0.018049 0.325004
-0.050061 0.160735 -0.133146
-0.043277 0.106348 -0.384253
-0.012557 0.004750 0.319706
0.062325 0.178855 -0.049177
0.026341 0.108727 -0.028348
0.010987 -0.020740 0.055308
-0.023640 0.193415 -0.117589
-0.054293 0.151378 -0.115641
0.004338 0.061878 -0.499468
0.009319 -0.016796 0.480309
-0.025111 -0.014324 -0.255030
-0.016576 -0.008719 0.208814
-0.047363 0.140779 -0.352176
-0.005859 -0.026377 -0.082991
0.013050 0.009217 0.165421
0.051213 0.136694 -0.189286
0.020354 0.076182 -0.412091
0.044829 0.204916 -0.032069
0.012829 0.018194 -0.152605
-0.036079 0.161505 -0.311614
-0.037651 0.017363 -0.440965
0.027116 0.103222 -0.476980
0.016550 0.162225 -0.420628
0.024191 0.244276 -0.053838
0.000910 -0.012160 0.480860
0.012669 0.025817 -0.381124
-0.019389 -0.010432 0.058282
0.020745 0.016358 -0.317604
0.005022 0.016807 0.046978
0.042610 0.113519 -0.074466
0.041988 0.118390 -0.021155
-0.011075 0.021311 -0.244262
0.008638 -0.015992 0.295699
0.011950 -0.025784 -0.165439
-0.037399 0.030241 -0.443607
0.048076 0.220405 -0.052739
0.054678 0.156140 -0.005093
-0.000927 0.025385 -0.319487
-0.035277 0.113279 -0.031183
0.048398 0.124666 -0.358390
0.014502 0.001237 0.296660
-0.007282 0.012946 0.179892
-0.040773 0.111164 -0.071851
0.036254 0.096522 -0.225903
0.011829 -0.019320 0.083749
0.004219 0.091223 -0.092033
0.008461 -0.017380 0.249716
-0.012208 0.000766 0.415422
-0.050200 0.130803 -0.248238
-0.002119 0.205425 -0.096615
0.021268 0.015980 -0.326173
-0.033522 0.037017 -0.472280
-0.041637 0.216365 -0.038401
-0.072259 0.193785 -0.025913
0.029273 0.090241 -0.314017
-0.045540 0.112802 -0.414462
-0.019331 0.086421 -0.188999
-0.016956 0.006082 0.118814
0.007435 0.019090 -0.090200
0.051150 0.165220 -0.010115
0.002783 -0.151955 0.457141
0.030496 0.092442 -0.200363
0.049089 0.118860 -0.179233
-0.046375 0.118518 -0.072031
-0.034718 0.099725 -0.124255
0.044801 0.145550 -0.323811
0.028310 0.089570 -0.259298
-0.043480 0.162049 -0.188353
0.036156 0.205367 -0.032319
-0.039721 0.166077 -0.195216
-0.005325 -0.020413 0.186425
0.013496 0.087154 -0.140532
0.031787 0.176261 -0.016222
0.021813 0.031991 -0.402823
0.036760 0.054411 -0.450783
0.018089 -0.015767 -0.012183
-0.050574 0.141081 -0.198125
0.052271 0.169865 -0.091586
-0.015456 -0.023178 -0.151686
-0.008842 0.160322 -0.007406
0.004505 -0.027978 -0.149991
-0.003375 0.081579 -0.216312
0.021804 -0.004618 -0.008827
0.013213 0.191862 -0.141622
-0.012770 -0.020575 0.019403
-0.052991 0.130799 -0.043730
-0.020819 0.173137 -0.303254
-0.005989 0.245305 -0.054407
0.042157 0.168557 -0.157797
0.019350 -0.024443 -0.315873
-0.013632 0.152548 -0.442202
0.011212 -0.026171 -0.168914
-0.044503 0.107550 -0.229762
-0.003170 0.008842 0.424778
-0.012745 -0.002875 0.423733
0.007949 0.016261 0.021415
0.037336 0.098187 -0.207977
-0.081423 0.175642 -0.022612
0.044181 0.112171 -0.429645
0.031887 0.002989 -0.448865
-0.019601 -0.015975 -0.062791
0.029562 -0.000917 -0.367662
-0.012073 -0.181289 0.437343
0.011319 -0.185625 0.443094
0.011966 -0.047257 0.479312
0.073324 0.171016 -0.029181
-0.024868 0.038321 -0.484936
-0.038958 0.115230 -0.008333
-0.015651 -0.020202 -0.047927
-0.028361 0.129963 -0.457428
-0.011235 0.009409 0.222376
0.010585 0.004766 0.380903
0.076294 0.161892 -0.008274
-0.049168 0.129637 -0.282651
0.014275 -0.026844 -0.261271
-0.020049 0.106008 -0.481877
-0.015049 0.002262 0.267676
-0.007736 0.010708 0.267379
0.003622 -0.096259 0.491692
0.031679 0.093164 -0.206318
-0.012297 0.174571 -0.375885
0.009264 -0.234914 0.437901
-0.020272 -0.017722 -0.136638
0.006622 -0.014811 0.395736
-0.010934 0.015047 0.024280
0.004749 0.092234 -0.085258
0.003636 0.037577 -0.398101
-0.024106 0.160047 -0.417088
0.015012 0.011526 0.028547
-0.001561 -0.000910 -0.470409
0.020411 0.237037 -0.059259
-0.020349 -0.000591 0.061572
0.011858 0.007350 0.261613
-0.011679 0.081350 -0.313356
0.017909 -0.010602 0.106046
0.036502 0.066663 -0.447979
-0.038846 0.157859 -0.365828
0.073661 0.139078 0.000378
0.033024 0.070407 -0.438841
-0.004793 0.026925 -0.371079
-0.017141 -0.005782 0.211162
-0.000137 0.079321 -0.354492
0.019500 -0.023196 -0.274338
-0.048934 0.127934 -0.311988
-0.062353 0.207848 -0.033691
0.041514 0.103403 -0.223305
0.015064 -0.003272 0.306481
0.004365 -0.031076 -0.394429
-0.007147 0.010090 0.304161
-0.000006 -0.021111 0.192143
-0.024640 0.174187 -0.247277
-0.003795 0.011804 0.285337
0.037362 0.097819 -0.237440
0.027670 -0.004026 -0.274043
-0.044685 0.119613 -0.052591
0.025729 0.000298 -0.203711
-0.042597 0.173798 -0.133899
-0.049722 0.150081 -0.180349
0.033056 0.093202 -0.286760
-0.043931 0.108624 -0.322973
0.048546 0.141723 -0.246013
-0.008543 -0.229504 0.434448
-0.025548 0.094836 -0.109474
-0.012356 -0.009532 0.374567
-0.001998 -0.195659 0.428342
0.048621 0.125074 -0.297062
0.005276 0.177490 -0.294307
0.020930 -0.010083 -0.013777
0.013227 -0.144037 0.440362
0.012163 -0.008335 0.460372
0.033422 0.121251 -0.457017
0.012694 -0.029320 -0.329703
0.016359 -0.010085 0.181382
0.038767 0.115510 -0.039185
-0.040749 0.155431 -0.311386
-0.039277 0.115045 -0.045122
-0.039459 0.233765 -0.048025
0.011767 -0.011169 0.349219
-0.013105 -0.153811 0.446185
-0.025160 -0.000628 -0.158749
0.020513 0.012214 -0.192630
0.011542 0.017502 -0.095111
0.016325 0.014382 -0.111365
0.014223 -0.014100 0.176509
-0.025209 0.010249 -0.307287
-0.045800 0.148219 -0.265756
0.001196 -0.018878 -0.447157
0.048170 0.131581 -0.347229
-0.006117 0.010099 0.322029
0.052779 0.229476 -0.045652
0.026129 -0.002257 -0.206755
-0.047214 0.191305 -0.024541
-0.013072 0.152343 -0.002993
0.008212 -0.031723 -0.371080
-0.041820 0.182518 -0.107270
0.012466 -0.014260 0.236423
-0.044112 0.147937 -0.325251
-0.010597 0.077862 -0.392736
-0.012734 0.011134 0.116977
-0.006838 -0.244274 0.445861
-0.012199 0.018221 -0.132285
0.024179 0.119907 -0.469724
0.009243 -0.113821 0.457107
0.032210 0.172371 -0.203163
-0.050018 0.135571 -0.232381
0.007209 0.080455 -0.301071
-0.037630 0.155932 -0.387328
0.027264 0.141543 -0.445415
-0.020334 -0.010490 0.016894
0.016305 -0.027022 -0.324919
0.006696 -0.031631 -0.379160
0.003126 -0.150909 0.428243
-0.038955 0.133134 0.007631
-0.015398 0.083263 -0.234938
-0.010225 0.005172 0.393432
0.057643 0.141050 -0.043632
-0.011130 0.080186 -0.495250
0.003799 -0.017111 -0.450442
0.018398 0.000565 0.130721
0.012760 -0.007515 0.380712
0.028971 0.020321 -0.399708
0.029914 0.180269 -0.160149
-0.000789 0.079013 -0.371435
-0.026587 -0.009153 -0.242228
-0.042489 0.104605 -0.203536
0.006664 0.172048 -0.013891
0.005359 -0.104742 0.487316
-0.001467 0.189910 -0.160882
0.050488 0.137286 -0.205295
0.012621 0.020972 -0.262335
-0.003939 0.098500 -0.052962
-0.031321 -0.010888 -0.419941
-0.054630 0.136899 -0.108920
-0.048678 0.130230 -0.348842
0.020255 -0.013943 -0.053373
-0.037573 0.047022 -0.456015
0.014559 -0.020983 -0.054088
-0.015964 -0.021956 -0.121111
0.017379 0.094646 -0.085973
0.032428 0.092944 -0.321220
-0.037780 0.076045 -0.467679
0.023609 0.175021 -0.239836
-0.073181 0.198415 -0.028474
-0.028871 0.190980 -0.117037
-0.012495 -0.059323 0.481345
-0.012812 0.202638 -0.100721
0.019799 0.006287 -0.018708
-0.009675 0.016649 -0.020526
0.021309 -0.019664 -0.240092
-0.044171 0.171183 -0.135804
0.013455 0.076486 -0.401748
0.025499 -0.004813 -0.179317
-0.036185 0.100510 -0.128926
0.036460 0.163430 -0.260123
0.013274 0.203088 -0.031058
0.013746 0.100360 -0.050724
0.012706 0.007720 0.220117
-0.013958 -0.139589 0.451764
0.013572 -0.025389 -0.188034
0.018891 -0.009509 0.083515
-0.018658 -0.017506 -0.071386
0.032003 0.092107 -0.344976
0.012069 0.015708 -0.040103
0.039042 0.082952 -0.456533
-0.024223 0.108517 -0.004842
-0.027382 0.172943 -0.238497
-0.028256 0.167526 -0.342519
0.051326 0.163142 -0.113615
0.039599 0.225074 -0.055952
-0.025966 0.002299 -0.213234
-0.053027 0.136439 -0.157204
-0.037622 0.056829 -0.454322
0.002725 0.020211 -0.095091
0.010964 -0.158525 0.448207
0.023264 0.022495 -0.477694
-0.005400 -0.164817 0.451669
-0.074240 0.163812 -0.023376
-0.009618 -0.186939 0.432506
0.065948 0.218198 -0.043616
0.035364 0.094604 -0.372646
0.015390 0.015621 -0.130416
0.013428 -0.119929 0.463003
0.025395 0.087165 -0.290673
-0.018455 0.012127 -0.103980
-0.063644 0.147345 -0.031455
-0.048011 0.121223 -0.373063
-0.037989 0.118561 -0.451052
0.002517 0.185929 -0.187232
0.006579 0.087774 -0.122560
0.052023 0.119067 0.007370
0.015364 0.188827 -0.153005
-0.006282 -0.143112 0.462341
0.010469 -0.183973 0.433918
-0.018133 0.158000 -0.430134
0.020991 0.010776 -0.169740
-0.020193 -0.003520 0.085117
0.003908 -0.022964 0.455334
0.008339 -0.016125 0.299221
0.033466 0.097850 -0.140293
0.024649 0.011454 -0.322996
-0.009026 -0.079048 0.473919
0.022604 0.131505 -0.461480
0.036106 0.042848 -0.444437
0.006478 0.026119 -0.367100
-0.029911 0.221912 -0.041469
-0.025605 0.087344 -0.249132
-0.006108 0.167000 -0.414721
0.034350 0.164797 -0.273827
0.009364 0.011940 0.174132
-0.025361 -0.014217 -0.432725
0.000201 -0.025213 0.002790
-0.010943 -0.093297 0.487232
-0.022640 -0.019368 -0.269859
-0.014413 0.081299 -0.370371
0.018230 -0.003964 -0.460315
-0.018076 0.015313 -0.186542
0.003977 -0.122426 0.479192
-0.000425 0.010288 0.375146
-0.002212 0.018880 -0.029265
-0.030171 -0.002668 -0.369479
0.031175 0.167073 -0.276083
-0.038527 0.066963 -0.462423
-0.030263 -0.005176 -0.440629
0.057363 0.150375 -0.074794
0.064476 0.132981 -0.002837
-0.001941 -0.246398 0.430778
-0.012831 0.104075 -0.028433
-0.049416 0.128374 -0.272329
0.027092 -0.014798 -0.360485
0.053327 0.150465 -0.126352
0.074545 0.187289 -0.022320
0.023323 0.008176 -0.202602
-0.038931 0.092236 -0.419131
0.011666 0.109018 -0.484057
-0.029656 0.107251 -0.047660
0.018601 0.091844 -0.111365
0.046737 0.124192 -0.402539
-0.023459 0.092540 -0.123027
-0.026291 0.109039 -0.024382
-0.070018 0.203063 -0.040088
0.031153 0.044446 -0.433082
0.020084 0.009953 -0.113340
0.029029 0.159755 -0.405494
0.054646 0.132652 -0.034468
-0.057238 0.158773 -0.074522
-0.047387 0.157257 -0.173093
-0.047596 0.123409 -0.391116
-0.017076 -0.016226 0.022707
0.021280 0.000396 -0.000374
0.008918 -0.025298 -0.091032
0.008225 0.172347 -0.396498
0.028610 0.081731 -0.413369
0.008051 -0.124117 0.447805
0.030512 0.192277 -0.107804
-0.016665 0.174351 -0.311239
0.008479 0.093388 -0.081250
-0.046432 0.113781 -0.281104
-0.008288 0.083237 -0.190679
-0.018643 0.105933 0.003934
0.023545 0.051752 -0.427742
-0.019151 -0.020551 -0.175268
-0.000730 0.193317 -0.142804
0.025579 0.167719 -0.381649
-0.051109 0.123415 -0.113940
-0.048261 0.132771 -0.345346
-0.009826 -0.008498 0.469765
-0.028349 0.089210 -0.311475
-0.011036 0.175906 -0.315796
-0.021448 0.174710 -0.259234
0.079187 0.164384 -0.017602
0.003628 -0.028177 -0.153839
0.040077 0.116218 -0.446353
0.046818 0.114206 -0.255579
0.010126 0.008787 0.268190
0.019606 0.154750 -0.433905
0.018277 -0.005377 0.148200
-0.000613 0.203125 -0.031079
-0.035611 0.046011 -0.444137
0.044032 0.151815 -0.265604
-0.011076 0.006215 0.332904
0.019516 0.097550 -0.073875
0.014036 -0.027678 -0.398284
-0.016706 -0.026676 -0.315249
0.008275 0.020599 -0.169508
-0.047347 0.115460 -0.107708
0.018957 0.011286 -0.109447
0.014036 0.009526 0.120578
-0.005007 0.044072 -0.407076
-0.027956 -0.008963 -0.303804
0.020570 0.016743 -0.322028
0.013361 -0.112119 0.470581
-0.022242 -0.007664 -0.034052
0.029411 0.123203 0.013123
0.012491 -0.023025 -0.070879
0.008252 0.019139 -0.106785
-0.011480 0.099908 -0.051205
0.028819 0.236517 -0.057512
0.001083 0.166502 -0.418267
0.037418 0.061859 -0.468461
0.016349 0.095225 -0.079625
0.054790 0.158123 -0.098347
0.005079 -0.026531 -0.087072
-0.043590 0.105331 -0.402135
-0.058567 0.138455 -0.031556
0.012675 -0.023375 -0.088885
-0.025101 0.009147 -0.283218
-0.014181 0.212210 -0.076857
0.040696 0.243830 -0.053737
-0.001461 -0.031920 -0.386930
0.005414 0.016359 0.062115
0.046136 0.147217 -0.260895
-0.018884 0.007165 0.017346
0.047246 0.148985 -0.220902
-0.025289 0.089201 -0.182282
0.006260 -0.020598 0.156861
-0.014311 -0.014331 -0.450516
-0.031462 0.095771 -0.475325
0.019447 -0.015139 -0.044253
0.042279 0.114694 -0.065330
-0.001653 0.080265 -0.496771
0.017146 0.217461 -0.039007
0.013488 0.009196 0.149944
0.019958 -0.023228 -0.290975
0.034338 0.169708 -0.212840
0.022367 0.167904 -0.394025
0.011196 0.012331 0.108208
-0.011898 -0.008034 0.420742
-0.019658 0.047291 -0.419200
0.019151 0.182748 -0.182101
0.016033 0.014442 -0.105325
-0.082221 0.176249 -0.016215
-0.022653 -0.013227 -0.130652
0.006156 -0.026743 -0.103951
0.008717 -0.040569 0.493628
-0.013311 -0.049564 0.482735
0.004125 0.050088 -0.414788
0.003689 0.081019 -0.239217
-0.007446 0.010092 0.298793
0.047367 0.120234 0.014765
-0.053923 0.132234 -0.077042
-0.022488 -0.002273 -0.026382
-0.066171 0.149292 -0.027088
-0.021175 0.218210 -0.039421
-0.010037 0.240964 -0.059771
-0.038156 0.092328 -0.462882
-0.016574 0.022842 -0.373816
-0.040957 0.107172 -0.448217
-0.026687 -0.014909 -0.332717
-0.020994 0.137808 0.005045
-0.003213 0.012123 0.274236
0.002409 -0.028231 0.492064
0.045901 0.112414 -0.358397
0.036730 0.086000 -0.430080
0.032769 0.180103 -0.148879
0.027786 0.097416 -0.098091
0.011702 0.160716 -0.430464
-0.012808 0.096169 -0.490514
-0.001828 -0.028105 -0.137930
-0.010417 -0.022108 0.023936
0.019506 -0.016310 -0.079454
-0.012840 0.004787 0.308293
-0.061977 0.155440 -0.004706
0.002760 -0.030069 -0.235368
0.034605 0.096991 -0.166881
-0.045759 0.145150 -0.312381
-0.052965 0.131716 -0.136673
-0.045619 0.213118 -0.056553
0.010740 0.020069 -0.190479
0.038513 0.110318 0.012805
-0.009986 0.058943 -0.423173
0.015545 0.009532 0.065051
-0.030362 0.050638 -0.481725
0.048112 0.137956 -0.274162
0.009684 -0.227671 0.440818
0.067022 0.149815 -0.024552
-0.012743 -0.016996 0.463507
-0.005816 0.100546 0.023914
-0.050013 0.144028 -0.202590
-0.050705 0.133048 -0.222009
0.023810 0.175526 -0.231850
-0.022884 0.186808 -0.147788
-0.025435 0.186605 -0.021942
0.027289 -0.014604 -0.377477
0.034033 0.093365 -0.353619
-0.054013 0.132010 -0.106687
0.011994 0.022647 -0.322756
0.013053 -0.063032 0.487643
0.003116 0.247011 -0.059537
-0.013847 0.183227 -0.196849
0.036061 0.107976 -0.070239
0.029764 -0.004399 -0.371120
-0.048343 0.239163 -0.051580
0.013048 0.021493 -0.292154
-0.007464 -0.112998 0.455742
0.024708 0.013823 -0.369912
0.017562 -0.026283 -0.333122
0.013220 -0.021525 -0.036324
-0.015872 -0.000975 0.269102
0.007344 -0.029097 -0.225563
-0.025568 0.010009 -0.318365
-0.011324 -0.009664 0.416318
-0.035729 0.018664 -0.453721
-0.042197 0.104292 -0.200122
-0.045314 0.145228 -0.339035
-0.013895 -0.007191 0.350469
0.004850 -0.141879 0.464010
-0.059792 0.178924 -0.054245
-0.014235 0.009587 0.122216
0.001557 -0.142539 0.430644
-0.006379 -0.141676 0.432364
0.022193 0.034929 -0.406900
-0.017229 0.231168 -0.046588
-0.026287 -0.013953 -0.298683
-0.012786 -0.151759 0.436385
-0.048863 0.220658 -0.052415
0.010203 0.022780 -0.296708
0.042830 0.122507 0.013508
-0.012793 -0.011750 0.458385
-0.033161 0.093578 -0.226035
-0.015758 0.015215 -0.117689
-0.051815 0.126008 -0.147519
-0.012586 -0.176864 0.439651
0.029045 0.059821 -0.435699
-0.036877 0.165716 -0.230759
0.012763 -0.001459 0.401123
0.050204 0.163349 -0.121522
-0.011691 -0.029912 -0.332116
0.002824 -0.020457 0.205053
-0.003170 -0.171382 0.427326
0.001681 -0.184738 0.451457
-0.029345 -0.007941 -0.361224
-0.000303 -0.016804 0.436014
0.015216 -0.004129 0.296158
0.044028 0.140203 0.003721
0.047912 0.132675 -0.341779
0.004676 -0.015553 0.400453
0.035117 0.084301 -0.426774
0.003729 0.080093 -0.304470
0.027016 0.030286 -0.478704
0.044951 0.109018 -0.172824
0.034994 0.050533 -0.472538
-0.031696 0.186348 -0.126393
0.004419 0.013054 0.220810
0.047469 0.115132 -0.120274
0.044832 0.109985 -0.413810
0.049018 0.136553 -0.252792
-0.040513 0.159888 -0.243256
-0.048354 0.124050 -0.347920
0.002510 -0.025772 -0.036799
0.085377 0.191603 -0.024762
-0.013548 0.082053 -0.266002
0.002041 0.080446 -0.275071
0.056773 0.129769 -0.010954
-0.038778 0.129658 -0.440646
0.010837 0.184607 -0.188880
0.001814 0.015059 0.146405
0.015860 0.083205 -0.281900
-0.006655 0.240067 -0.060091
0.020709 0.084315 -0.356655
0.005979 0.243465 -0.059811
-0.002990 0.174218 -0.387905
0.008696 -0.201776 0.432851
0.023832 0.082509 -0.396842
0.016171 -0.000586 0.239698
0.050430 0.129608 -0.215966
0.029184 0.003742 -0.372000
0.052873 0.156438 -0.122244
0.010999 0.016073 -0.024521
-0.040509 0.093752 -0.444310
-0.032566 0.092183 -0.348764
-0.013383 -0.045652 0.483121
0.001106 0.079657 -0.348571
0.018355 0.085545 -0.203147
0.025224 0.087343 -0.324897
0.022663 -0.021457 -0.399650
0.015750 -0.008434 0.236706
-0.005450 0.022913 -0.233538
-0.010978 -0.016715 0.211521
-0.015067 -0.028398 -0.332391
-0.012532 0.087529 -0.133990
-0.034945 0.007634 -0.408682
0.016954 0.139328 0.004205
0.002173 -0.025842 -0.430482
-0.017288 -0.002544 0.213528
-0.010711 -0.030621 -0.345087
-0.001519 0.080580 -0.243575
0.045397 0.111207 -0.296861
-0.016177 0.131714 -0.465554
-0.003783 -0.036705 0.467255
-0.019482 0.212033 -0.074384
0.016073 0.173809 -0.343686
-0.024186 0.009022 -0.241913
0.019391 -0.000064 0.088971
0.011188 -0.021539 -0.436282
0.025851 0.002173 -0.220576
-0.005428 -0.028775 -0.190343
-0.000879 0.001540 -0.473174
-0.011810 -0.098332 0.470484
0.036831 0.203682 -0.070284
-0.008082 0.090718 -0.099125
-0.020535 0.012354 -0.186668
0.024494 0.087281 -0.229689
-0.049632 0.144370 -0.211312
-0.019652 -0.021847 -0.230139
0.016119 0.009521 0.044274
-0.048181 0.121710 -0.310286
-0.022866 0.180252 -0.189993
-0.015520 0.009310 0.082886
-0.019584 -0.017325 -0.100246
0.009492 0.176509 -0.308557
0.002298 -0.080192 0.470169
0.024692 0.031860 -0.482098
-0.028050 0.167914 -0.351889
0.020540 -0.012084 -0.032573
0.022644 0.098071 -0.483476
-0.007320 0.181499 -0.224029
0.068259 0.169036 -0.036435
-0.023004 0.128604 -0.463843
0.013524 0.176053 -0.016106
0.026939 -0.004366 -0.242629
-0.005912 0.019187 -0.065676
-0.020126 0.106460 -0.025262
-0.015193 -0.015176 0.121333
-0.016854 0.019232 -0.295755
-0.000397 0.103643 -0.018727
0.010524 -0.025994 -0.149187
-0.026421 0.087904 -0.331655
0.011160 0.068514 -0.497202
-0.014970 0.019348 -0.481843
0.006121 -0.214907 0.431187
-0.046883 0.115231 -0.104051
-0.015284 -0.019296 -0.004358
-0.020617 -0.001087 0.052259
-0.019283 0.018303 -0.330072
-0.035555 0.067049 -0.474982
-0.036291 0.096262 -0.339980
-0.024866 0.043743 -0.421095
0.041973 0.107120 -0.131412
0.011973 0.018880 -0.161588
-0.026852 0.209976 -0.072374
-0.042806 0.120456 0.014642
0.011662 0.018587 -0.143568
-0.044204 0.116161 -0.429985
-0.044885 0.211499 -0.035710
-0.000284 -0.003630 0.471000
0.004559 -0.015495 0.405012
-0.000406 0.192236 -0.148422
-0.046915 0.112985 -0.185706
-0.004208 0.071427 -0.411569
-0.017525 0.082052 -0.383276
-0.011058 0.011960 0.133931
-0.000070 0.014287 0.193162
-0.013421 0.013010 0.028888
-0.014263 -0.022343 -0.087491
-0.011275 0.118352 -0.479411
-0.017141 0.055824 -0.494382
0.016242 0.183077 -0.188650
-0.027461 -0.012482 -0.322738
-0.005436 -0.030085 -0.250463
-0.004627 0.018968 -0.047847
-0.028061 0.001265 -0.303069
-0.038114 0.098263 -0.349669
-0.025450 0.000997 -0.181757
0.026288 0.205834 -0.032577
-0.020009 0.008682 -0.472381
-0.013037 -0.008869 0.357298
0.015050 -0.006139 0.291460
0.015722 0.225558 -0.043486
-0.038747 0.069302 -0.458431
-0.020455 0.170327 -0.382991
0.043584 0.114183 -0.078042
-0.027223 0.006499 -0.327116
0.023506 0.000535 -0.103251
-0.007150 0.236098 -0.049315
-0.043680 0.163108 -0.179936
-0.038931 0.105139 -0.103333
0.022443 -0.021840 -0.342998
-0.012086 0.009271 0.203476
-0.029825 0.166781 -0.361058
0.045523 0.112935 -0.113220
-0.010874 0.009930 -0.478109
-0.005173 0.181359 -0.228955
0.009572 0.018801 -0.115691
-0.004530 0.041736 -0.494942
0.045854 0.191384 -0.024585
0.025343 -0.003258 -0.164744
0.050544 0.129597 -0.210338
-0.032727 0.168435 -0.243810
-0.006792 0.195030 -0.131480
-0.048384 0.114922 0.012715
0.018124 0.016762 -0.249202
0.009390 0.083586 -0.187251
-0.021956 -0.014197 -0.118075
-0.022068 0.172291 -0.014026
0.039877 0.163382 -0.212347
-0.008540 -0.068510 0.475937
-0.026540 0.136127 0.005975
-0.025801 0.040527 -0.418125
-0.004337 -0.015592 0.409936
0.011182 -0.055418 0.493876
-0.023545 -0.011378 -0.135959
-0.011259 -0.200808 0.440948
-0.014051 0.227751 -0.063046
0.016013 -0.005458 0.251469
-0.024458 -0.005398 -0.121807
0.053526 0.130839 -0.089519
-0.027374 -0.011774 -0.306464
0.008059 0.176054 -0.352337
-0.039556 0.213225 -0.036665
-0.018831 -0.010751 0.076475
0.006563 -0.030429 -0.274824
0.011449 0.011785 0.121117
-0.026594 0.103082 -0.061033
-0.020419 -0.021392 -0.424876
-0.061216 0.164111 -0.052551
0.016187 -0.003666 0.254456
0.005765 -0.022552 0.082079
-0.015942 0.015627 -0.137962
-0.018712 0.007353 0.020742
-0.047513 0.139809 -0.313139
0.003908 -0.019801 -0.444091
0.025729 -0.004109 -0.185609
-0.001187 0.091266 -0.088555
-0.040725 0.108079 -0.095143
-0.004143 0.011415 0.300819
0.016663 -0.004576 0.227080
0.004275 0.077836 -0.388674
-0.003597 0.015961 0.096099
0.001177 0.000190 0.464077
-0.037029 0.097349 -0.280091
0.003028 0.015645 0.112261
-0.011785 -0.140358 0.458308
0.051321 0.131889 -0.187559
-0.016701 0.171675 -0.384633
-0.023991 0.221676 -0.041338
0.042394 0.160517 -0.208640
-0.012979 -0.018942 0.073479
0.044343 0.107927 -0.417446
-0.038794 0.157765 -0.360553
-0.009947 0.208291 -0.033936
-0.077349 0.163234 -0.019209
-0.006273 0.084315 -0.165133
0.047680 0.119218 -0.286843
-0.033960 0.094058 -0.232169
-0.056363 0.174141 -0.015049
0.044232 0.108437 -0.394624
0.024550 -0.004843 -0.136046
0.015750 -0.004351 0.270327
0.016400 0.086466 -0.166169
0.000139 0.018142 0.015301
-0.025927 0.001436 -0.206260
0.031995 0.195976 -0.027125
0.002479 0.019642 -0.067540
-0.016311 -0.003606 0.262500
-0.007515 0.022259 -0.221757
-0.032562 0.164504 -0.353911
0.012558 0.017017 -0.101847
0.014816 -0.006173 0.302007
-0.023362 -0.013760 -0.170370
0.048143 0.118038 -0.095868
-0.007757 -0.027877 -0.175587
0.012981 -0.158635 0.443952
-0.012147 -0.014385 0.255305
0.019193 0.018667 -0.349108
0.049256 0.119356 -0.201712
-0.054888 0.137950 -0.104994
0.044957 0.108975 -0.184415
-0.008452 -0.022849 0.027035
-0.027837 -0.012583 -0.428982
0.043460 0.110532 -0.109951
0.013473 0.042801 -0.409077
0.023711 -0.003950 -0.092116
-0.053344 0.156016 -0.120891
-0.022220 -0.005006 -0.016869
-0.001077 0.195263 -0.133854
-0.031306 0.177026 -0.174957
-0.005981 0.024767 -0.321685
-0.020702 -0.014767 -0.074631
0.010630 0.042107 -0.406299
0.007384 0.017538 -0.483550
0.048962 0.128830 -0.288025
0.038990 0.165470 -0.204429
-0.046821 0.133475 -0.392688
-0.015989 -0.000506 0.260923
0.016440 0.203252 -0.095490
0.019217 0.101487 -0.054540
0.002970 0.080265 -0.290437
0.033930 -0.000635 -0.409131
0.034933 0.162242 -0.315884
-0.019136 0.173938 -0.294267
0.005708 -0.020240 0.181895
0.044675 0.116942 -0.070426
0.014206 0.079167 -0.494010
-0.050904 0.225198 -0.043287
0.022247 0.003922 -0.081557
-0.047870 0.121224 -0.376491
-0.073053 0.173741 -0.030703
0.011004 -0.017586 0.170597
-0.038586 0.079866 -0.449217
-0.015515 0.014393 -0.080746
-0.008854 -0.021211 0.089928
-0.029786 0.166313 -0.324845
0.048306 0.127000 -0.341222
0.012435 -0.025306 -0.425898
-0.006847 -0.224824 0.447139
0.013448 -0.029564 -0.353437
-0.007361 -0.024527 -0.025408
0.038984 0.086385 -0.443420
-0.045517 0.110617 -0.404306
-0.020648 -0.013355 -0.047284
0.001295 -0.027332 -0.101027
0.047846 0.121856 -0.311781
0.006679 -0.239819 0.433210
0.013507 -0.142781 0.451287
-0.014005 -0.005780 0.354944
-0.006963 -0.023048 0.044859
-0.004970 0.188165 -0.169202
0.042387 0.156242 -0.253254
0.028347 0.175529 -0.201687
0.051185 0.124968 -0.098874
0.005050 -0.201830 0.449538
0.031724 0.059298 -0.481785
0.001431 -0.024521 0.027092
-0.014845 0.180210 -0.222345
-0.017299 0.098711 -0.063086
0.002440 0.019829 -0.075851
-0.048260 0.135403 -0.309457
-0.004023 0.177652 -0.299331
-0.009821 -0.012340 0.398187
0.021019 -0.023443 -0.335903
-0.028423 0.172694 -0.231488
0.019580 0.084066 -0.349505
0.030551 -0.000901 -0.387331
0.007279 -0.023060 0.486437
-0.000037 -0.028238 -0.134528
0.020302 0.084971 -0.266258
-0.050508 0.135898 -0.217167
0.080202 0.161577 -0.014424
-0.044202 0.109018 -0.144047
-0.022521 0.085330 -0.307032
0.006772 0.111736 0.019465
-0.010458 -0.214393 0.437227
0.028278 0.089585 -0.253709
-0.036934 0.096469 -0.355391
-0.030605 0.091259 -0.278733
0.019567 0.172513 -0.350888
0.016456 -0.009508 0.187480
0.026461 0.168661 -0.334339
-0.050528 0.133195 -0.226459
0.027395 -0.011903 -0.322113
-0.049951 0.120292 -0.189626
-0.029603 0.089830 -0.350956
0.028372 -0.007514 -0.327419
-0.047608 0.136357 -0.327215
0.018399 -0.022213 -0.207275
-0.026024 0.087354 -0.292458
-0.017623 0.007197 0.065106
-0.009325 -0.243529 0.439939
0.023499 0.009522 -0.233855
-0.011594 0.020309 -0.210691
0.013850 -0.148926 0.444416
-0.034493 0.152597 -0.412485
-0.035138 0.112581 -0.039496
0.005404 0.020395 -0.119691
-0.034911 0.241077 -0.052068
-0.011828 -0.104864 0.466933
0.018008 0.116022 0.017094
-0.000579 -0.055657 0.500034
-0.021178 0.008346 -0.101504
0.007369 0.129679 -0.470848
-0.016211 0.004520 0.178230
0.055324 0.197589 -0.028017
0.019460 0.190152 -0.138327
0.012623 0.021498 -0.284844
-0.044786 0.111071 -0.426253
-0.002963 0.137674 -0.464426
0.016866 0.061294 -0.425975
-0.019907 -0.005088 0.088652
-0.046970 0.113306 -0.139549
0.029420 0.194666 -0.103244
-0.013292 -0.055812 0.489698
-0.009319 -0.092446 0.469416
0.034969 0.094739 -0.289667
0.023751 -0.020920 -0.364995
0.037271 0.101432 -0.460944
0.012097 0.004388 0.336087
-0.034610 0.161858 -0.375404
0.024117 0.062245 -0.430747
-0.016706 -0.020678 -0.095083
-0.063662 0.188986 -0.045611
0.008132 -0.031462 -0.340584
0.013846 0.056062 -0.423642
0.037357 0.044664 -0.456142
0.018417 0.009778 -0.047241
0.036576 0.094188 -0.397033
-0.029049 -0.002483 -0.325871
-0.022621 0.173193 -0.274629
-0.014437 0.002951 0.281680
-0.004435 -0.137505 0.433868
-0.015981 0.083978 -0.217037
-0.017244 0.170433 -0.392116
0.035984 0.096830 -0.195379
0.003486 0.025433 -0.338893
0.006652 0.176056 -0.326485
-0.024084 0.106515 -0.038686
0.019484 -0.001785 0.094998
0.004840 0.066019 -0.498871
0.055333 0.125530 -0.003317
-0.009069 -0.215241 0.434012
-0.041139 0.104445 -0.153741
-0.026532 0.105207 -0.051068
-0.010829 0.018477 -0.118953
-0.008084 0.023456 -0.282893
-0.010860 -0.043490 0.492350
0.054776 0.134351 -0.088164
0.025739 -0.012639 -0.264443
-0.037933 0.158218 -0.331113
-0.046074 0.110833 -0.164644
0.017371 -0.024986 -0.280128
-0.010961 -0.015426 0.259340
0.056060 0.147210 -0.097989
0.038015 0.170479 -0.178067
0.045347 0.120603 -0.019286
-0.006625 0.148680 -0.451086
-0.020701 -0.010353 0.003669
-0.034362 0.163751 -0.308705
0.043786 0.108874 -0.326292
0.027642 0.003291 -0.309333
-0.070547 0.174909 -0.015474
-0.004178 0.104234 0.004680
0.010276 0.004067 0.411906
0.016136 0.014693 -0.117397
-0.031805 0.111355 -0.023523
-0.054211 0.134565 -0.112435
0.004723 0.126563 -0.474148
-0.020813 0.108389 0.021316
0.044990 0.113644 -0.423772
-0.021795 0.024546 -0.391419
-0.037397 0.024269 -0.431284
-0.047779 0.168088 -0.128148
0.002595 0.018802 -0.029764
0.042730 0.105704 -0.386720
-0.010553 0.235403 -0.048930
0.016663 -0.005821 0.219473
0.024143 -0.011072 -0.168517
-0.021269 0.173439 -0.279308
-0.025360 0.086145 -0.368033
0.027691 -0.012620 -0.347473
-0.010440 0.103305 0.013919
-0.049067 0.125738 -0.301921
0.024135 -0.009623 -0.146085
-0.043443 0.174234 -0.127903
0.009443 0.015110 0.044103
-0.019448 -0.018285 -0.122320
-0.010884 0.081977 -0.237368
-0.001647 0.080089 -0.289424
-0.024945 0.006701 -0.233390
-0.000467 0.014378 0.187522
0.023143 -0.019106 -0.291597
0.002008 0.013857 0.200292
0.012950 -0.160142 0.436691
0.042387 0.207543 -0.061512
0.048225 0.127456 -0.326986
0.016984 0.175299 -0.276291
0.048466 0.128908 -0.344753
-0.004091 0.168964 -0.409552
-0.032031 0.092182 -0.333035
-0.024680 -0.019035 -0.335260
0.017732 -0.006716 0.165062
-0.049985 0.177662 -0.016996
-0.006711 0.048060 -0.412658
0.045180 0.120120 -0.014909
0.026712 0.192169 -0.116839
-0.002398 -0.019589 0.249202
-0.008715 0.006208 0.410642
-0.016920 -0.009276 0.184255
-0.008682 -0.018102 -0.446587
0.001471 0.148046 -0.453323
-0.038041 0.055110 -0.461621
0.015343 -0.009392 -0.456258
-0.045377 0.158831 -0.190267
-0.005630 -0.115144 0.453100
-0.022542 -0.012965 -0.121255
-0.037716 0.098530 -0.320931
0.024306 0.000301 -0.138499
-0.027678 0.011268 -0.382939
-0.018026 -0.008364 0.153206
0.010813 0.085000 -0.164382
0.021659 -0.014954 -0.131287
-0.043167 0.111396 -0.093670
0.016682 -0.021264 -0.124104
-0.020463 -0.019055 -0.181224
0.064102 0.167263 -0.011245
-0.013530 0.019557 -0.214090
0.015702 0.016434 -0.168994
-0.005150 0.025144 -0.333935
0.020139 0.013603 -0.217946
-0.023485 0.054486 -0.429087
-0.033609 0.073554 -0.437397
-0.010974 0.053700 -0.496505
-0.027721 0.006767 -0.353156
-0.016006 0.175299 -0.285357
0.025453 0.052061 -0.487541
0.021930 -0.014630 -0.137121
0.014066 -0.024649 -0.174798
0.027962 -0.006249 -0.300922
0.010898 -0.011453 0.373042
-0.006903 -0.018841 0.225723
0.006207 -0.014558 0.432746
0.067802 0.164248 -0.035329
0.018795 0.176200 -0.251537
0.051760 0.210427 -0.035117
0.052969 0.192495 -0.025200
0.046424 0.112566 -0.204716
-0.010364 -0.018935 0.457652
-0.003980 0.092909 -0.494182
-0.026706 0.000539 -0.236584
-0.009149 0.008493 0.314699
0.041661 0.215591 -0.037973
-0.035311 0.007203 -0.444056
-0.002555 -0.027718 -0.124563
-0.005289 0.081668 -0.221857
-0.041504 0.156156 -0.272858
0.009313 0.083323 -0.192482
0.047093 0.195038 -0.065922
0.026778 -0.010939 -0.436618
0.005648 0.080826 -0.284665
0.002479 -0.017442 0.345380
0.002062 0.081875 -0.204174
0.034411 0.106202 -0.072750
-0.045467 0.116490 -0.076858
0.007809 0.232827 -0.047506
-0.019444 -0.017666 -0.104701
-0.047433 0.151442 -0.205317
-0.047895 0.139600 -0.305510
-0.001143 0.014439 0.180624
-0.020090 0.185217 -0.163611
0.005840 0.086351 -0.138027
0.081923 0.200066 -0.029387
-0.019971 -0.013960 -0.029108
0.026561 0.180958 -0.171954
0.023244 0.048226 -0.488377
-0.037006 0.040202 -0.447720
0.018988 0.173943 -0.285374
-0.008320 0.180366 -0.236189
-0.010785 0.007997 0.286805
0.022522 0.085401 -0.297123
-0.020786 -0.003211 0.057206
0.005095 -0.009771 0.476382
-0.042875 0.156009 -0.252959
-0.014803 0.010562 0.074003
0.019016 0.025785 -0.390019
-0.048898 0.117765 -0.192757
0.045609 0.117528 -0.074152
0.008419 0.181965 -0.216699
0.002882 -0.020228 0.215208
-0.016744 -0.017260 0.005735
-0.002280 0.017369 0.039562
-0.011200 -0.014803 0.451891
0.009496 -0.182995 0.446852
-0.021720 -0.003143 0.014004
-0.011540 -0.177636 0.435001
-0.017740 -0.007812 0.171390
0.000193 -0.031807 -0.391196
-0.003251 0.177258 -0.016773
-0.018362 0.173047 -0.320666
-0.048936 0.184801 -0.076180
-0.000238 0.189482 -0.164643
0.021980 0.172801 -0.282595
-0.021050 0.101767 -0.056258
0.011415 -0.117984 0.475034
0.000750 -0.025349 -0.006780
-0.022315 -0.013715 -0.440348
0.009254 -0.017091 0.451492
0.001261 -0.031194 -0.277924
0.049167 0.119269 -0.145782
-0.032476 0.091761 -0.358896
0.045346 0.147725 -0.273172
0.012131 0.006451 0.276867
-0.051721 0.136106 -0.186003
0.048176 0.142504 -0.254958
-0.005931 0.013289 0.189135
0.018354 0.017808 -0.293975
0.012358 -0.104734 0.478704
-0.048832 0.146388 -0.216743
-0.002214 0.021377 -0.143644
-0.041432 0.206011 -0.063645
0.040896 0.168596 -0.166918
0.022702 -0.005385 -0.054632
0.035570 0.156269 -0.397050
0.015225 -0.027686 -0.392176
0.011427 -0.181212 0.435879
0.021639 0.205049 -0.084680
0.040961 0.097473 -0.418240
-0.001267 0.182796 -0.218259
0.008093 0.210400 -0.081639
0.003427 -0.022302 0.116800
-0.009852 0.004299 0.431638
-0.009320 0.081914 -0.231901
-0.062110 0.194301 -0.026198
0.038844 0.170738 -0.170152
0.017387 0.083382 -0.294179
-0.016444 -0.010596 0.181127
0.059320 0.147977 -0.000579
-0.030617 0.110256 0.001043
-0.051793 0.208331 -0.033958
-0.045651 0.112198 -0.409104
-0.028280 0.043921 -0.426835
0.048114 0.122110 -0.278293
0.004581 0.020970 -0.141064
-0.013154 -0.136273 0.444807
-0.049907 0.123990 -0.219178
0.012871 0.021953 -0.308611
0.008089 0.018497 -0.076483
-0.036899 0.155415 -0.004692
0.028583 0.004140 -0.357560
-0.017824 -0.024789 -0.277437
-0.041900 0.102549 -0.443302
0.013772 0.049675 -0.418220
-0.024857 0.148780 -0.438177
-0.032053 0.007216 -0.453447
-0.010708 -0.086745 0.473388
-0.044052 0.104805 -0.413793
-0.016114 0.106053 0.022608
-0.034465 0.147125 -0.425978
0.036383 0.168966 -0.203760
-0.034269 0.205506 -0.071280
0.002169 0.170051 -0.406912
0.000001 0.015872 0.120132
-0.009458 0.034128 -0.394103
0.032729 0.163219 -0.374506
-0.016571 0.216158 -0.071333
-0.018328 -0.003200 0.169797
-0.051999 0.116491 0.013695
-0.029942 0.003062 -0.453118
0.048170 0.117175 -0.240681
-0.022528 0.115834 -0.474683
0.000815 -0.020894 0.197116
-0.045992 0.112386 0.016119
-0.041529 0.116294 -0.443307
0.022680 0.000990 -0.068119
0.007087 0.081102 -0.272474
-0.036989 0.057337 -0.470509
-0.006866 0.081176 -0.250053
0.014153 0.175871 -0.295664
-0.012564 -0.012728 0.286706
-0.010252 0.063525 -0.498601
-0.027054 -0.016183 -0.394570
0.017658 0.007830 0.035325
0.012091 -0.124308 0.469587
-0.052373 0.125513 0.011845
-0.046625 0.168606 -0.133116
-0.031835 0.011675 -0.398356
0.047520 0.134509 -0.322072
0.003452 0.009600 0.385345
-0.014311 -0.006136 0.338706
-0.027965 0.055784 -0.433945
-0.052035 0.126356 -0.095918
0.007016 -0.023742 0.009101
0.047107 0.119355 -0.321736
0.012196 0.037173 -0.492099
0.082395 0.162299 -0.008500
-0.044793 0.171510 -0.131424
0.035305 0.038771 -0.439700
-0.042567 0.104046 -0.374526
-0.002416 -0.160385 0.453478
0.013331 0.082079 -0.265132
0.015249 0.158745 -0.430939
0.009089 -0.240692 0.440557
-0.022766 0.136522 -0.457339
0.036058 0.141545 -0.429717
0.025459 0.187155 -0.140330
0.010071 0.007267 0.325440
0.017143 0.017705 -0.256113
0.006477 0.020850 -0.148374
0.050616 0.120054 0.002331
-0.009339 -0.020794 0.099175
-0.058097 0.125842 0.000140
-0.028665 0.097843 -0.098296
0.018207 0.009763 -0.039125
0.045915 0.115685 0.007375
-0.049306 0.138782 -0.242958
0.020275 0.088454 -0.159932
-0.011419 0.010645 0.171923
0.008225 -0.019331 0.176264
0.003593 0.168366 -0.411474
-0.009741 0.105217 -0.006169
-0.018782 -0.025764 -0.380182
0.024507 0.005215 -0.200904
0.008043 0.009486 0.301257
-0.013559 0.087029 -0.141677
0.028289 0.095019 -0.479831
-0.068049 0.167215 -0.011219
-0.016520 0.083065 -0.333330
0.010224 0.006643 0.341454
-0.009412 0.096064 -0.067478
-0.060668 0.189201 -0.049589
-0.021042 -0.023985 -0.341361
-0.041723 0.102403 -0.365973
-0.000237 0.245712 -0.060008
-0.056399 0.139705 -0.054678
0.034523 -0.002091 -0.420670
-0.012313 0.015732 -0.039638
0.002485 0.192621 -0.144769
0.014712 -0.004522 0.316825
0.009703 0.015276 0.032395
0.062255 0.143315 -0.027161
-0.016551 0.177535 -0.247410
-0.003243 -0.021424 0.159950
0.014861 0.004320 0.226958
-0.012640 0.081902 -0.252583
-0.019081 0.241598 -0.059049
0.043486 0.136013 -0.412630
0.009393 -0.080449 0.492887
0.043232 0.149697 -0.371010
0.033252 0.006929 -0.402789
-0.034992 0.093689 -0.360895
-0.039822 0.146044 -0.410197
-0.003879 -0.032317 -0.374281
-0.022062 0.172769 -0.288310
-0.025325 -0.017665 -0.323431
0.011308 -0.018731 0.120002
0.038479 0.113261 -0.452148
-0.002916 0.084607 -0.153865
0.022923 -0.009570 -0.090175
-0.038577 0.107899 0.021049
-0.039032 0.200710 -0.029743
0.019349 -0.023640 -0.407289
0.007471 0.140858 0.003358
0.039082 0.095731 -0.456549
-0.021835 -0.016751 -0.433712
-0.034169 0.166346 -0.257380
-0.022193 -0.012581 -0.099552
-0.014445 0.082497 -0.278837
0.024927 0.000578 -0.168659
-0.019720 0.086747 -0.185444
0.015878 -0.006975 0.248445
0.012155 0.013909 0.023367
0.011890 -0.093593 0.473611
0.050379 0.142133 -0.192519
0.006068 0.058660 -0.422615
0.029190 -0.009353 -0.374549
0.009433 -0.023742 -0.033658
0.008521 0.187530 -0.022454
0.075103 0.149136 -0.001220
-0.036329 0.053475 -0.470907
-0.005696 -0.018437 0.264349
0.033283 0.093589 -0.240494
0.051844 0.127471 -0.143693
0.058330 0.182317 -0.054847
-0.002030 0.078964 -0.380892
-0.045808 0.110453 -0.213598
0.028455 0.090658 -0.207371
0.034652 0.079892 -0.433712
-0.001422 -0.069418 0.499247
-0.026761 0.008077 -0.335259
0.007069 0.081150 -0.256902
0.011922 0.171953 -0.013839
0.004148 -0.029591 -0.221792
-0.047828 0.134977 -0.332225
0.010144 -0.022131 0.022657
-0.052089 0.128148 -0.074305
0.023236 0.185176 -0.021152
-0.074888 0.169499 -0.026546
0.002231 0.176638 -0.322248
-0.039982 0.191836 -0.087345
-0.024281 0.182806 -0.167843
-0.019702 -0.007874 0.081105
0.013550 -0.126923 0.460519
0.062426 0.162834 -0.048095
-0.002608 -0.114852 0.483588
0.036325 0.096550 -0.231152
0.028847 0.165202 -0.381473
0.008211 0.081976 -0.225755
0.018875 0.083343 -0.365086
0.025645 0.102523 -0.062345
0.009050 -0.095778 0.467928
-0.023586 0.174914 -0.243187
0.002223 0.132761 0.007837
0.006255 0.014067 0.145057
-0.005117 0.187473 -0.173742
-0.043698 0.185307 -0.021225
0.024158 -0.019765 -0.347364
-0.029979 0.194611 -0.102767
0.023602 0.002317 -0.118322
-0.013830 -0.021732 -0.052900
-0.032560 0.120235 0.014764
0.040391 0.157411 -0.270733
-0.028879 0.110271 -0.019772
-0.020980 -0.007122 0.027089
-0.036671 0.097223 -0.195148
-0.036015 0.170776 -0.193762
0.014831 0.084674 -0.189083
0.019794 -0.013201 -0.446169
0.002939 -0.019755 0.236564
-0.026388 -0.003559 -0.199087
-0.001903 -0.024636 0.020731
-0.001252 0.035223 -0.393620
-0.049027 0.131471 -0.304033
0.019148 0.084565 -0.278785
-0.026486 0.190073 -0.126181
0.017321 0.003739 0.132123
0.040955 0.165781 -0.183305
0.019176 -0.007880 0.091785
0.039996 0.129759 -0.435167
0.020954 0.001388 0.008627
0.028729 0.004090 -0.363942
-0.013845 -0.116649 0.466258
0.037924 0.080174 -0.464207
-0.026337 -0.007000 -0.217671
0.026265 0.089460 -0.484636
-0.031997 0.196939 -0.027657
0.033655 0.094309 -0.220318
0.078072 0.182186 -0.019498
-0.024503 -0.013810 -0.219956
0.057016 0.158728 -0.073882
0.026791 0.084063 -0.400129
-0.048718 0.123425 -0.020299
-0.048581 0.127720 -0.329947
-0.020518 0.016220 -0.294701
-0.045324 0.114596 -0.089386
-0.003249 -0.032875 -0.365208
-0.051050 0.148336 -0.169065
0.040247 0.112630 -0.063322
-0.013950 0.075670 -0.494875
0.022970 0.011349 -0.258447
0.004694 0.087037 -0.495105
0.034074 0.162802 -0.326200
0.021363 0.034320 -0.486542
-0.053339 0.146999 -0.134762
-0.054320 0.187267 -0.061106
0.009544 0.177433 -0.277531
0.038180 0.099787 -0.187628
0.001960 0.013203 0.230568
0.011297 -0.017675 0.159104
0.025764 -0.016542 -0.334695
-0.022960 0.010998 -0.237520
-0.016720 0.161389 -0.423325
-0.047189 0.113676 -0.201234
0.004962 0.182692 -0.213943
-0.017327 0.000850 0.191484
0.025698 0.092665 -0.483608
-0.053338 0.171954 -0.082110
0.047904 0.159705 -0.152596
-0.015131 -0.019990 -0.025503
0.033650 0.032251 -0.424881
0.002974 0.018897 -0.036421
-0.018174 -0.015909 -0.008619
0.024531 -0.009419 -0.162950
0.030870 0.091495 -0.334066
0.029752 -0.006293 -0.380593
0.013379 0.082826 -0.224140
0.029193 0.090281 -0.330345
0.017080 -0.009872 0.154396
-0.038970 0.115791 -0.015473
0.047460 0.139106 -0.309992
-0.023392 0.007828 -0.186923
0.051584 0.130688 -0.171562
0.007586 0.133746 -0.467125
0.023036 -0.005456 -0.070370
0.012452 -0.123150 0.456324
-0.020967 0.104657 -0.042011
0.021194 0.178684 -0.209517
0.021237 -0.016885 -0.159151
-0.031224 0.091554 -0.315033
0.049699 0.148282 -0.186191
0.003194 0.024481 -0.293507
0.019912 -0.010804 0.016893
-0.065853 0.171605 -0.041792
0.002875 0.024661 -0.299863
-0.035464 0.002196 -0.413341
-0.016750 0.174082 -0.364521
-0.027548 0.102585 -0.065238
0.012444 -0.020461 0.024572
-0.001691 0.176748 -0.341984
-0.046099 0.128402 -0.408080
-0.005810 0.016691 0.046075
0.005551 -0.147056 0.430307
-0.046244 0.115336 -0.403254
0.037923 0.109987 -0.067415
0.054199 0.197248 -0.055056
-0.005865 0.080253 -0.348292
-0.008039 -0.028429 -0.414115
0.036956 0.159143 -0.337060
0.064051 0.188016 -0.022723
0.013974 0.177476 -0.262452
-0.016783 0.002676 0.186307
0.008759 -0.013897 0.369233
0.007797 0.081026 -0.318651
0.045620 0.111997 -0.354453
0.063749 0.191679 -0.044820
-0.015527 0.014535 -0.086282
-0.055562 0.143334 -0.107786
0.053434 0.133623 -0.058707
0.009517 -0.060141 0.495731
-0.045098 0.137293 0.005330
-0.017188 0.003424 0.155838
-0.022800 -0.015644 -0.179779
-0.002688 0.080472 -0.268507
0.012127 0.083568 -0.195075
0.081974 0.185323 -0.025518
0.016661 -0.014669 0.071108
-0.022572 0.091373 -0.132649
-0.014372 -0.011836 0.245598
-0.009821 -0.047168 0.494917
-0.035004 0.026322 -0.422045
-0.002625 -0.167111 0.452227
-0.012946 0.244133 -0.053758
-0.023619 -0.005139 -0.081814
0.063464 0.125219 0.012008
0.049322 0.131970 -0.262456
0.004949 0.010873 0.304506
0.009731 -0.012155 0.396030
-0.002965 -0.020143 0.220361
-0.042308 0.152508 -0.340735
0.065315 0.159635 -0.037693
-0.072227 0.143202 -0.006875
-0.008841 -0.251656 0.440631
0.005212 -0.139196 0.466095
0.040892 0.141351 0.003086
-0.057688 0.166190 -0.066018
-0.000129 -0.017745 -0.450257
0.064548 0.164968 -0.042900
-0.034013 0.044030 -0.473815
-0.001705 -0.030893 -0.265015
-0.023450 0.012848 -0.471929
0.023590 0.001344 -0.460296
-0.042457 0.151371 -0.375376
-0.042153 0.154403 -0.293084
0.025548 -0.017720 -0.394233
0.006382 0.080618 -0.337561
0.014584 -0.021507 -0.074032
0.063966 0.176526 -0.016368
0.056643 0.151906 -0.086191
-0.014885 -0.017426 0.069207
0.047198 0.116639 -0.370509
0.021635 0.011243 -0.206496
-0.015256 0.010549 0.057764
-0.045645 0.143672 -0.375005
0.002745 -0.018100 0.313622
0.002884 -0.252023 0.437520
-0.022711 -0.021189 -0.409243
0.026303 0.090065 -0.179247
-0.032263 0.111071 -0.031157
0.025343 -0.004702 -0.171489
-0.024867 0.103366 -0.056324
0.003790 0.010022 0.361361
0.020286 0.174155 -0.272937
0.023668 -0.014681 -0.212212
-0.049711 0.131614 -0.260783
0.028491 0.001365 -0.336714
0.033643 0.103636 -0.084561
-0.061311 0.138709 -0.022270
-0.023482 -0.003815 -0.067459
0.012316 -0.104190 0.469789
-0.015220 -0.015517 0.110715
0.033707 -0.004909 -0.416026
-0.058905 0.141028 -0.036017
0.035917 0.057273 -0.447860
-0.004123 0.020089 -0.096174
0.005911 0.106961 0.022106
0.005055 0.180744 -0.236403
-0.070882 0.137894 -0.002474
-0.045967 0.111178 -0.242770
0.002874 -0.017562 0.337508
-0.026147 -0.011260 -0.244943
0.007452 -0.027665 -0.166266
0.019196 0.004977 0.030209
-0.008659 0.020128 -0.151023
0.011710 0.017036 -0.078677
0.049150 0.137395 -0.244606
0.006622 -0.022595 0.065081
0.015904 0.010792 0.016469
0.001607 -0.018180 0.316819
-0.013461 0.160967 -0.428935
0.013211 0.099494 -0.054273
-0.026507 0.203305 -0.031179
-0.049730 0.156552 -0.149887
0.008273 0.178046 -0.270661
-0.010014 0.010122 0.230671
-0.022521 -0.011560 -0.095468
0.014832 0.174619 -0.317072
0.013468 -0.137824 0.454344
0.040979 0.149439 -0.395388
-0.021942 0.013472 -0.269712
-0.009795 -0.025815 -0.123478
0.008190 0.094058 -0.076999
0.024629 0.089904 -0.165759
0.016770 0.179559 -0.219277
-0.001484 0.022584 -0.194558
-0.015995 0.019676 -0.287821
-0.045743 0.133776 -0.404932
-0.032659 0.077445 -0.431902
0.048480 0.137842 -0.264904
0.031857 0.165926 -0.296784
0.018119 -0.021590 -0.177401
-0.016634 -0.000357 0.230464
0.003159 0.227781 -0.064286
0.039088 0.158020 -0.299738
0.007452 -0.218211 0.446738
0.017771 0.034472 -0.401167
-0.026647 0.197574 -0.099721
-0.042539 0.101944 -0.409081
0.025601 0.169694 -0.356988
0.000272 0.024155 -0.260938
-0.036999 0.015673 -0.423428
0.006285 0.203079 -0.102041
0.047010 0.117254 -0.339771
-0.025446 0.086975 -0.311209
0.000621 -0.031060 -0.267895
0.048000 0.116195 -0.174002
-0.006830 0.012373 0.212317
-0.031211 -0.010466 -0.414325
0.050114 0.142496 -0.197781
-0.044404 0.152919 -0.253292
0.042977 0.118084 -0.008553
-0.021145 0.005169 -0.044006
-0.002077 0.083530 -0.168939
-0.042514 0.151839 -0.328414
0.023319 -0.011601 -0.142691
0.001174 -0.083788 0.496182
-0.051198 0.137914 -0.192908
0.054684 0.125979 0.011588
0.036942 0.011434 -0.440404
0.014280 -0.013784 0.183346
0.022412 0.085320 -0.346919
0.052358 0.130818 -0.142112
0.043812 0.109717 -0.127259
-0.025072 -0.017354 -0.307126
-0.045082 0.108996 -0.236166
0.046376 0.122731 -0.034503
-0.006246 0.180315 -0.240879
0.033941 0.002710 -0.404893
-0.037015 0.158591 -0.376082
-0.027051 0.075191 -0.425266
-0.043575 0.152817 -0.272389
-0.008809 0.090296 -0.102899
0.035736 0.003615 -0.432616
-0.043059 0.168902 -0.151540
0.009760 -0.011857 0.403387
0.042889 0.170785 -0.142531
-0.019726 -0.018972 -0.151862
0.011388 0.198049 -0.028271
-0.060015 0.172870 -0.055766
0.034471 0.017869 -0.456220
0.048968 0.129700 -0.280015
0.003237 -0.030850 -0.274035
0.010145 -0.022883 -0.009529
-0.039220 0.161039 -0.249802
-0.003183 0.017816 0.013609
0.032866 0.191390 -0.104743
-0.018447 -0.023446 -0.245657
-0.039863 0.100415 -0.296909
0.003037 -0.019919 0.228420
-0.001211 -0.030043 -0.223067
-0.022725 0.000577 -0.054338
-0.010917 -0.004611 0.460471
0.012703 0.021157 -0.271685
-0.017637 0.105120 -0.028171
-0.056357 0.141315 -0.074497
0.071197 0.173874 -0.014901
-0.010356 0.084281 -0.175360
-0.021563 0.201352 -0.094872
0.034517 0.033233 -0.429860
0.075838 0.204910 -0.032066
-0.067999 0.131357 0.008613
-0.029129 -0.007276 -0.347286
-0.030571 0.091184 -0.283879
-0.019445 -0.022937 -0.255078
0.010721 -0.088614 0.488706
0.012111 -0.006278 0.425335
-0.019914 0.041355 -0.489583
-0.050177 0.120687 -0.164525
0.048942 0.147928 -0.199572
-0.022212 -0.022834 -0.351813
0.042766 0.178678 -0.113575
0.021322 0.012508 -0.230590
0.016208 0.017937 -0.238287
-0.018594 -0.017118 -0.058100
0.009854 -0.011148 0.419936
0.004548 0.058377 -0.498652
0.013194 0.003657 0.309898
0.005114 0.101839 -0.037961
0.010952 0.013093 0.087159
0.010985 0.003766 0.394338
-0.005022 -0.025682 -0.046051
0.017620 -0.009472 0.138455
-0.031463 0.214686 -0.037472
0.022538 0.009824 -0.199739
0.041025 0.108172 -0.446430
-0.013016 0.083098 -0.208889
0.013310 0.063781 -0.423948
-0.075441 0.139703 0.001701
-0.005161 0.022011 -0.190481
-0.006122 -0.023568 0.037502
-0.014009 -0.005184 0.358365
0.008796 0.184126 -0.195323
-0.016138 -0.005521 0.258755
-0.028154 0.002484 -0.314629
