0.85559487 0.70550036 0.69048148 0.00001940 0.00016705 0.00005431
0.90262967 0.54268903 0.83840358 0.00036611 -0.00014677 0.00014825
0.64496571 0.32636347 0.20169796 0.00015779 -0.00023325 0.00014028
0.26707608 0.36320028 0.28339386 -0.00016897 0.00004548 -0.00015245
0.83850163 0.69152743 0.80991846 0.00012564 0.00021879 0.00018810
0.70083088 0.81696749 0.37269866 0.00010797 0.00017135 -0.00000385
0.93613875 0.55224758 0.56244111 0.00017577 -0.00012097 -0.00003960
0.42088103 0.26668939 0.17618209 -0.00020503 -0.00028315 -0.00018370
0.77251768 0.56708759 0.33773562 0.00014626 -0.00000891 -0.00010107
0.54970127 0.49619192 0.16422498 -0.00005573 -0.00011908 -0.00015386
0.53867507 0.62090623 0.19232103 -0.00011697 0.00005773 -0.00025758
0.76587677 0.34653655 0.53254473 0.00013695 -0.00011426 -0.00000471
0.43744221 0.64139497 0.32251859 -0.00027311 0.00013096 -0.00000121
0.59087664 0.54090005 0.15912925 0.00006740 -0.00003387 -0.00032755
0.63194942 0.76267654 0.74036771 -0.00016099 0.00017575 0.00007703
0.82780719 0.35033172 0.62506020 0.00019507 -0.00025358 -0.00003068
0.44811249 0.28274038 0.13266070 -0.00009285 -0.00028423 -0.00040691
0.71106434 0.36655223 0.43191820 0.00008735 -0.00012712 -0.00012643
0.82651395 0.34977466 0.64602852 0.00015152 -0.00028393 0.00004146
0.72036535 0.65980732 0.33065468 -0.00000596 0.00005778 -0.00002477
0.75883055 0.75820649 0.71759105 0.00006386 0.00023356 -0.00000310
0.87019992 0.70319062 0.68159467 0.00008512 0.00022248 -0.00000020
0.61984539 0.31149036 0.72317362 -0.00008770 -0.00026968 0.00018319
0.81291401 0.71533579 0.26345164 0.00006418 -0.00015278 -0.00041395
0.53766751 0.70893794 0.32363108 -0.00010909 0.00016646 -0.00003242
0.63720739 0.41715854 0.24845907 -0.00000875 -0.00009469 -0.00007324
0.70413274 0.65816933 0.31003273 0.00003588 0.00008356 0.00000673
0.56177872 0.49267530 0.79377055 -0.00017293 -0.00005460 0.00024851
0.34470633 0.36873198 0.26543441 -0.00009274 0.00002978 0.00000422
0.41917279 0.45352474 0.43537030 -0.00015709 -0.00009247 0.00007114
0.54608536 0.53047526 0.77675325 -0.00016614 -0.00000812 0.00017288
0.49673927 0.49554768 0.67896360 -0.00010342 0.00005050 0.00006421
0.73003536 0.29451180 0.69191939 0.00008081 -0.00036679 0.00006943
0.08374611 0.32075584 0.36231503 -0.00022720 0.00012333 -0.00016171
0.31772116 0.28958797 0.29183269 -0.00001953 -0.00016928 0.00012430
0.53244585 0.70293391 0.41577035 -0.00005841 0.00008285 -0.00002543
0.57362765 0.65478504 0.77730954 -0.00014122 0.00014313 0.00017380
0.62350738 0.76473200 0.35964686 -0.00000419 0.00001529 -0.00009327
0.76375997 0.33372292 0.57481879 0.00012158 -0.00005046 -0.00000294
0.40614676 0.24549019 0.48275864 0.00005584 0.00001070 0.00009977
0.72558057 0.30670542 0.72210962 0.00014020 -0.00028053 0.00021977
0.57216150 0.35260430 0.74471837 -0.00015680 -0.00022770 0.00020782
0.89345050 0.67665678 0.62482935 -0.00003184 0.00006924 -0.00005796
0.48828024 0.63077646 0.70283663 -0.00018039 0.00008208 0.00011017
0.70565695 0.51897991 0.21752854 0.00018190 -0.00007943 -0.00029951
0.49299011 0.23641764 0.19206432 -0.00000915 -0.00039284 -0.00009898
0.44014105 0.60769457 0.43193597 -0.00014478 0.00005117 0.00005205
0.42404008 0.59457737 0.36884457 -0.00014539 0.00000023 -0.00003120
0.89148396 0.63765144 0.81548083 0.00022081 0.00016402 0.00015457
0.46834370 0.64204407 0.25076473 -0.00019942 0.00010879 -0.00019332
0.72915941 0.52017230 0.26337981 0.00010944 -0.00007260 -0.00014967
0.64394039 0.35134166 0.14097844 0.00019823 -0.00009017 -0.00030697
0.15497038 0.28767788 0.32115504 -0.00011857 -0.00034331 0.00000520
0.44288835 0.28439131 0.36670437 0.00003718 -0.00002059 0.00003065
0.55581754 0.87751102 0.51198328 -0.00029858 0.00044771 -0.00009610
0.85618097 0.70850843 0.36935315 0.00002512 -0.00010788 -0.00012540
0.79185361 0.54800355 0.90618944 -0.00002583 -0.00015532 0.00039990
0.53387803 0.23081489 0.24604924 0.00025171 -0.00033924 0.00002791
0.92190349 0.58448112 0.50293982 0.00017687 0.00002335 -0.00015183
0.46330369 0.26425049 0.14714631 -0.00012119 -0.00036166 -0.00026071
0.19526410 0.28264752 0.30664927 -0.00017947 -0.00035567 -0.00011654
0.62525523 0.82732445 0.65118641 -0.00010656 0.00031004 0.00015874
0.52066070 0.65377104 0.22121796 -0.00024579 0.00012051 -0.00022915
0.65899998 0.72267836 0.35785303 0.00004241 -0.00000824 -0.00003673
0.41745242 0.31992030 0.13284558 -0.00018279 0.00017597 -0.00037964
0.38739052 0.27626088 0.21754389 -0.00016790 -0.00026261 -0.00008673
0.44166446 0.57121861 0.63458973 -0.00024400 -0.00015585 0.00004429
0.39424139 0.42082617 0.33529270 -0.00009590 -0.00001890 0.00003607
0.73006439 0.29270583 0.60852003 0.00021573 -0.00018928 -0.00006828
0.75000584 0.75826222 0.73702544 0.00010299 0.00020121 0.00015022
0.70021003 0.59979582 0.22607878 0.00022019 0.00011363 -0.00019844
0.43988433 0.45358849 0.47496080 -0.00010064 -0.00007553 0.00001535
0.39728010 0.23770611 0.51150215 0.00007681 0.00009448 0.00008389
0.51159704 0.74499083 0.57821274 -0.00014677 0.00018818 -0.00006598
0.90900505 0.62287605 0.79239893 0.00029609 0.00010587 0.00008054
0.11831762 0.29486701 0.35983497 -0.00004328 -0.00020661 0.00007566
0.64738601 0.51822913 0.18009107 0.00005042 -0.00011326 -0.00026820
0.60015666 0.79098737 0.44971135 -0.00004789 0.00002023 -0.00002082
0.84968454 0.71850616 0.42752403 0.00002929 0.00006791 0.00005483
0.07310009 0.30689350 0.32915550 -0.00040098 0.00063310 -0.00004898
0.63276076 0.76936519 0.72824031 -0.00012016 0.00016533 0.00002802
0.63574219 0.33378261 0.13294490 0.00040140 -0.00005346 -0.00015203
0.42015123 0.35245898 0.14334872 -0.00015072 0.00016957 -0.00021673
0.59561390 0.84413761 0.60732925 -0.00011505 0.00027287 0.00029171
0.59785825 0.63515610 0.79838598 -0.00005437 0.00006735 0.00022080
0.30647287 0.34373033 0.26377618 -0.00016771 0.00006193 -0.00008548
0.44995797 0.68258160 0.61340344 -0.00035092 0.00007191 0.00010245
0.50455487 0.66665655 0.70001262 -0.00016986 0.00016864 0.00009274
0.90088099 0.53169745 0.81889653 0.00030202 -0.00017835 0.00008859
0.39922088 0.22781332 0.34563032 0.00006595 -0.00028316 -0.00010526
0.55351990 0.65501672 0.21494353 0.00005036 0.00019004 -0.00023742
0.57820511 0.71911001 0.74043876 -0.00021351 0.00005671 0.00016541
0.77905530 0.55792218 0.36236748 0.00009923 -0.00007168 -0.00003303
0.66530836 0.31360552 0.47911930 -0.00002175 -0.00020479 -0.00015143
0.63956803 0.72897214 0.35543594 0.00003390 0.00001297 -0.00004582
0.68269378 0.43289545 0.27606186 0.00008608 -0.00016111 -0.00001638
0.88409626 0.63494456 0.83550698 0.00029804 0.00010965 0.00018583
0.58383524 0.78932273 0.64821553 0.00000232 0.00021938 -0.00000049
0.46083003 0.70316643 0.60526329 -0.00028777 0.00023809 0.00005513
0.46170518 0.55395019 0.20596622 -0.00015794 0.00004587 -0.00021154
0.50222737 0.24122438 0.17616512 -0.00000276 -0.00038628 -0.00017407
0.80430800 0.76640880 0.26645324 0.00021827 0.00050099 -0.00004327
0.60241312 0.80083257 0.64951932 -0.00009006 0.00007587 0.00005942
0.48404834 0.65955222 0.44142431 -0.00006703 0.00009644 0.00004997
0.04545451 0.28948063 0.39440161 -0.00052093 -0.00030065 0.00026903
0.48464006 0.43428403 0.12176524 -0.00011399 0.00012592 -0.00037432
0.28146237 0.38029510 0.31292692 -0.00003819 0.00015472 0.00001501
0.56690753 0.69700503 0.26768199 -0.00003968 0.00023910 -0.00013815
0.37940863 0.27748558 0.26001653 -0.00009246 -0.00018348 0.00003114
0.55286193 0.24959296 0.16843997 0.00013848 -0.00038121 -0.00019872
0.59505689 0.73649067 0.48793995 -0.00002543 0.00003874 0.00005349
0.92458045 0.50439584 0.60497993 0.00026684 -0.00002928 0.00004613
0.73591018 0.64933568 0.83510250 -0.00008514 -0.00002267 0.00002951
0.54817307 0.84508044 0.53732401 -0.00036391 0.00013213 -0.00008021
0.68290448 0.71990281 0.36595923 0.00005330 0.00000099 -0.00006452
0.65051758 0.75586444 0.34870857 0.00001726 -0.00001283 -0.00006640
0.60841787 0.84762269 0.43626878 -0.00015514 0.00006177 -0.00006470
0.73870426 0.61183208 0.84857893 -0.00004931 -0.00006064 0.00003307
0.47723219 0.40003949 0.48881510 -0.00006853 -0.00008532 -0.00004596
0.75668234 0.72545952 0.77049500 -0.00004771 0.00011536 0.00012257
0.62114275 0.33039275 0.45824382 -0.00005120 -0.00013063 -0.00009575
0.54224175 0.77143508 0.58235425 -0.00012024 0.00012428 -0.00004547
0.08783434 0.34306026 0.41953889 0.00010477 -0.00010298 0.00036479
0.55906373 0.34781048 0.09970788 -0.00006624 -0.00010377 -0.00038214
0.67619085 0.64052951 0.82749844 0.00001571 0.00000480 0.00026219
0.80967498 0.51652652 0.41481772 0.00002363 0.00003869 -0.00009547
0.28402799 0.15774028 0.58150738 0.00025437 -0.00030119 0.00020867
0.80287504 0.60008806 0.90330827 0.00001291 0.00010125 0.00037424
0.40223861 0.50023735 0.36024749 -0.00020245 -0.00004333 -0.00003906
0.49688458 0.58024436 0.18611121 -0.00016606 0.00009369 -0.00021258
0.52573705 0.22848016 0.22713716 0.00017789 -0.00039303 -0.00004708
0.46140161 0.49066827 0.60251123 -0.00016538 -0.00001189 -0.00000038
0.82676011 0.70860040 0.59397143 0.00005968 0.00006373 0.00001953
0.62992227 0.36014619 0.78168750 -0.00002469 -0.00019933 0.00027926
0.52774006 0.47851747 0.16827285 0.00000646 -0.00000829 -0.00010263
0.32957169 0.22545193 0.52435213 -0.00011528 0.00005525 0.00009130
0.77734059 0.60144114 0.90136981 -0.00005182 0.00012426 0.00038272
0.12791978 0.39229980 0.38917670 -0.00001137 0.00029420 0.00028612
0.64311367 0.43118235 0.23188576 -0.00001141 -0.00010415 -0.00007773
0.42216063 0.27111509 0.16364534 -0.00016759 -0.00034526 -0.00020079
0.85714006 0.41511688 0.71813273 0.00018779 -0.00005998 0.00017330
0.82938147 0.37589845 0.50374228 0.00010311 -0.00026992 -0.00014237
0.46671855 0.43771029 0.12844254 -0.00013619 0.00006125 -0.00037700
0.54443848 0.48004812 0.16879033 -0.00002395 -0.00005542 -0.00010257
0.77036864 0.52040642 0.84574693 0.00000990 -0.00003619 0.00005007
0.54130691 0.68010151 0.24681860 -0.00005963 0.00025591 -0.00013395
0.44827959 0.56270713 0.51780969 -0.00010330 0.00001331 0.00004568
0.42502737 0.60740316 0.57746273 -0.00034694 -0.00004980 -0.00006305
0.48494202 0.37824371 0.59920204 -0.00024488 -0.00008505 0.00001626
0.56648290 0.26138940 0.15158167 0.00011532 -0.00041485 -0.00022125
0.69956499 0.67804527 0.33779374 0.00004609 0.00003916 0.00000057
0.73476857 0.36542118 0.45991981 0.00010950 -0.00007628 -0.00009435
0.82944036 0.43411288 0.41817537 0.00014048 -0.00019077 -0.00023760
0.63939446 0.82609898 0.29227510 -0.00029802 0.00006010 -0.00032344
0.42502978 0.24508089 0.36707896 0.00009324 -0.00007708 0.00013474
0.68579954 0.39942113 0.36958405 0.00005171 -0.00006501 -0.00008745
0.25365695 0.29709920 0.27049625 -0.00014070 -0.00025283 -0.00031242
0.61148000 0.33971316 0.28292483 0.00008221 -0.00012984 0.00005416
0.73134804 0.77092165 0.72462028 0.00007136 0.00025239 -0.00002085
0.83422059 0.36416823 0.68318826 0.00024256 -0.00020428 0.00002547
0.92264289 0.67694652 0.39921805 0.00030651 -0.00003777 -0.00042062
0.79120779 0.74727631 0.65278006 0.00004636 0.00018331 0.00010415
0.68058187 0.30673206 0.72938341 0.00005046 -0.00027582 0.00020871
0.92419541 0.66853601 0.67434013 0.00020229 0.00022772 0.00009738
0.81872821 0.37508795 0.73320365 0.00018041 -0.00021342 0.00016111
0.71244162 0.32415223 0.48943108 0.00014979 -0.00017515 -0.00012590
0.35033736 0.30684346 0.22936533 -0.00017521 -0.00013131 -0.00016665
0.75599283 0.74822569 0.55341774 0.00007152 0.00010426 0.00000336
0.86596960 0.41763002 0.49140254 0.00022060 -0.00014010 -0.00010287
0.48957115 0.38883480 0.47847748 -0.00004763 -0.00007334 -0.00002757
0.66950798 0.83602083 0.32249033 0.00009527 0.00028868 -0.00005906
0.78996533 0.68301833 0.32206330 0.00001443 -0.00003730 -0.00007266
0.50527334 0.65913165 0.47831681 -0.00003250 0.00003183 0.00005026
0.64858973 0.32602358 0.16095941 0.00029612 -0.00029313 -0.00013031
0.62738973 0.58048898 0.17222142 0.00007423 0.00008974 -0.00037625
0.52553201 0.29500344 0.11408205 0.00001940 -0.00027197 -0.00040572
0.53148431 0.66167539 0.22190255 -0.00007866 0.00029094 -0.00024674
0.46787786 0.62113309 0.22662857 -0.00020138 0.00015962 -0.00027020
0.68928790 0.40811101 0.33286592 0.00010098 -0.00017564 -0.00005526
0.43794194 0.44701535 0.46586886 -0.00010582 -0.00006278 0.00003056
0.60941255 0.79828709 0.35391977 -0.00013470 0.00000315 -0.00012375
0.75962085 0.76009560 0.26900840 -0.00017576 -0.00017055 -0.00029876
0.70072103 0.47856265 0.23592636 0.00008491 -0.00021964 -0.00019027
0.74071366 0.37932956 0.44727650 0.00010995 -0.00010389 -0.00005226
0.62582433 0.40665463 0.12110730 0.00033322 0.00013904 -0.00025026
0.50562936 0.30110833 0.11490393 -0.00016482 -0.00014203 -0.00041193
0.47314316 0.40568990 0.12001340 -0.00009544 -0.00006693 -0.00040944
0.84895551 0.73856217 0.34272400 0.00011820 0.00030497 -0.00010459
0.56548750 0.30962789 0.10840827 0.00002693 -0.00015960 -0.00043964
0.32568851 0.16705829 0.44303486 -0.00020525 -0.00033779 -0.00017564
0.68858069 0.77152634 0.64060342 -0.00000150 0.00012527 0.00003234
0.85506928 0.70506769 0.74458998 0.00014878 0.00023000 0.00002666
0.65519834 0.37720713 0.15049827 0.00029519 0.00008957 -0.00027594
0.60059261 0.70834935 0.28865832 0.00003241 0.00021541 -0.00004956
0.33535364 0.23132351 0.39403751 -0.00022665 0.00000336 -0.00005989
0.45143455 0.47372606 0.56399596 -0.00018505 -0.00005008 0.00003731
0.49229583 0.40581581 0.11543107 0.00000901 -0.00009211 -0.00038789
0.81593734 0.38376248 0.74646050 0.00019442 -0.00015529 0.00020097
0.43872666 0.45114720 0.14874722 -0.00019226 0.00008804 -0.00032959
0.61648053 0.85349751 0.45345569 0.00008142 0.00027124 0.00001938
0.53028303 0.38809696 0.10691315 -0.00014063 -0.00002659 -0.00028892
0.46401489 0.46302921 0.60842961 -0.00019698 -0.00002841 -0.00005118
0.83825547 0.37102473 0.56840312 0.00007415 -0.00023176 -0.00000807
0.45905882 0.54896671 0.65484762 -0.00017980 -0.00017386 -0.00001978
0.56823313 0.81482571 0.59561759 -0.00018003 0.00006443 0.00011503
0.73258001 0.31803283 0.52086294 0.00013303 -0.00019047 -0.00015482
0.77546602 0.67274934 0.33279327 -0.00000581 0.00002467 -0.00010063
0.56520659 0.28711116 0.12236586 0.00006676 -0.00032869 -0.00032031
0.35332522 0.37076882 0.30576366 -0.00007790 -0.00002513 0.00004511
0.70776886 0.79761863 0.41227874 0.00000498 0.00001536 -0.00007758
0.31396151 0.21595794 0.45431465 -0.00023573 -0.00002592 -0.00005036
0.62753582 0.35170174 0.41617966 -0.00005392 -0.00011620 -0.00006417
0.75094634 0.74527097 0.60729611 0.00004917 0.00008576 0.00002572
0.45942611 0.26169214 0.32704115 0.00005840 -0.00006766 0.00009363
0.72609246 0.80566031 0.35911727 0.00012863 0.00018842 -0.00002978
0.68083620 0.47403607 0.22591248 0.00007454 -0.00012278 -0.00013508
0.56868684 0.73838860 0.44410619 -0.00006086 0.00009337 0.00002296
0.82201147 0.75493205 0.31466830 0.00014334 0.00022992 -0.00003560
0.53267998 0.70508540 0.31445518 -0.00004807 0.00018919 -0.00008133
0.66135818 0.79675001 0.53511685 0.00000721 0.00013496 0.00002150
0.66800553 0.42049515 0.27701128 0.00002230 -0.00015767 -0.00008753
0.07807233 0.28466985 0.35365984 0.00014582 -0.00041771 0.00007003
0.43634427 0.38657516 0.37786064 -0.00003707 -0.00007989 -0.00001734
0.60604441 0.45186892 0.81789064 -0.00015185 0.00004392 0.00028679
0.59060615 0.43171600 0.80715579 -0.00019562 -0.00014886 0.00029096
0.90899932 0.66260546 0.70151019 0.00018690 0.00011303 0.00009186
0.87720984 0.68394035 0.52352142 0.00007152 0.00005085 -0.00002751
0.61509359 0.52487248 0.83492333 -0.00013678 -0.00002716 0.00034015
0.83737546 0.69854939 0.29431355 0.00016190 -0.00031467 -0.00014071
0.58623534 0.35058522 0.09962472 0.00005781 -0.00016756 -0.00039849
0.49949625 0.65466881 0.70431483 -0.00022466 0.00009318 0.00013167
0.58564848 0.82078850 0.45984310 -0.00015088 0.00001527 -0.00007349
0.88804966 0.53635812 0.75690383 0.00006047 0.00003881 0.00013592
0.40757656 0.48042917 0.20313419 -0.00018634 0.00026137 -0.00011701
0.76193225 0.31973222 0.71001762 0.00014802 -0.00026418 0.00012418
0.93581742 0.58865172 0.61482757 0.00018768 0.00003480 0.00003098
0.44021371 0.65614778 0.55489916 -0.00025014 0.00007706 -0.00016597
0.81058079 0.72454810 0.50686902 0.00005442 0.00011961 -0.00002202
0.74431586 0.58905053 0.86479300 -0.00011433 -0.00003415 0.00002291
0.70150656 0.76538509 0.63662010 0.00003270 0.00010692 0.00003186
0.22490132 0.30201897 0.27598760 -0.00019519 -0.00018245 -0.00034621
0.46387038 0.46391726 0.62127310 -0.00024703 -0.00005381 0.00002218
0.59758943 0.72654051 0.75398225 -0.00015121 0.00013398 0.00019997
0.52442843 0.36434582 0.70199782 -0.00019863 -0.00019736 0.00016643
0.82234985 0.52903175 0.90171134 0.00007308 -0.00015029 0.00043164
0.65587729 0.45212805 0.83343053 0.00002869 -0.00010073 0.00027678
0.10747056 0.32045314 0.33824182 -0.00018186 0.00018865 -0.00010163
0.88645846 0.66148090 0.78581858 0.00022808 0.00017079 0.00008557
0.27646592 0.16975954 0.54908979 -0.00025125 0.00004831 -0.00001117
0.76617628 0.75239873 0.73055404 0.00010111 0.00020090 0.00012045
0.49849275 0.33420244 0.12049132 -0.00015364 0.00002154 -0.00021870
0.58993530 0.84879416 0.59804028 -0.00018302 0.00038456 0.00015643
0.55997193 0.79313564 0.58202404 -0.00008547 0.00006891 -0.00004094
0.48147056 0.37894124 0.43969423 -0.00002706 -0.00010523 -0.00000188
0.64072573 0.27692369 0.56246209 -0.00005852 -0.00030017 -0.00009685
0.84126914 0.37011164 0.61923224 0.00015659 -0.00011001 0.00000230
0.87065685 0.39107510 0.58679283 0.00029415 -0.00019105 0.00001670
0.61019158 0.31523064 0.48426834 -0.00003245 -0.00016350 -0.00012428
0.46816206 0.41417798 0.53151786 -0.00014160 -0.00006993 0.00000935
0.79020268 0.35929370 0.55662364 -0.00000356 -0.00008139 -0.00009477
0.44623220 0.61851496 0.43529764 -0.00013610 0.00007932 0.00006948
0.35992014 0.21216762 0.57623082 0.00016714 -0.00005817 0.00026443
0.92283267 0.59552842 0.68461400 0.00018070 -0.00004900 -0.00003873
0.62030637 0.81839317 0.51479036 -0.00001402 0.00009113 0.00000897
0.73491877 0.66373247 0.82117796 -0.00003369 0.00004350 0.00007170
0.74188673 0.74831617 0.61495835 0.00004822 0.00007968 0.00003573
0.66436625 0.83715761 0.35241821 0.00008501 0.00024531 -0.00008854
0.59687173 0.72020149 0.35716194 0.00002530 0.00004736 -0.00001746
0.67528993 0.75814754 0.77192879 0.00006673 0.00022473 0.00027181
0.55026162 0.71882743 0.71086454 -0.00010887 0.00015552 0.00017547
0.44673762 0.66028768 0.31340083 -0.00028631 0.00026129 0.00011408
0.76307213 0.75042158 0.50066316 0.00005259 0.00008513 -0.00002929
0.80979931 0.52632564 0.90166777 -0.00001808 -0.00015599 0.00043073
0.54662627 0.35358518 0.71965289 -0.00020137 -0.00016567 0.00020692
0.90733230 0.62443417 0.49569416 -0.00003343 -0.00000846 -0.00001998
0.29031375 0.19908676 0.59043056 -0.00026581 0.00020017 -0.00002505
0.57286954 0.39045832 0.77444679 -0.00024292 -0.00015813 0.00018731
0.84931314 0.41760176 0.46233609 0.00022574 -0.00004179 -0.00007713
0.84085256 0.74546063 0.27241445 0.00045303 0.00028444 -0.00021312
0.77693772 0.56877404 0.34692767 0.00014859 -0.00001618 -0.00004573
0.84465182 0.51583141 0.88921416 0.00018732 -0.00024520 0.00036078
0.68203825 0.78744411 0.52717125 0.00001596 0.00012873 0.00003470
0.39503255 0.47088754 0.29645374 -0.00015318 0.00002521 0.00003322
0.52757049 0.59066433 0.17285433 -0.00011867 0.00018583 -0.00032938
0.07756452 0.31333587 0.35538667 -0.00016175 0.00024779 -0.00008169
0.11585207 0.35835478 0.40669292 -0.00000151 -0.00001722 0.00026746
0.47394887 0.56200886 0.70298195 -0.00023171 -0.00009717 0.00020004
0.74789065 0.50095266 0.32356811 0.00014740 -0.00006025 0.00000534
0.94401079 0.58104849 0.58373958 0.00029645 0.00008459 -0.00001562
0.92569059 0.67689407 0.64485794 0.00012569 0.00027744 0.00003687
0.92194217 0.59841853 0.69750434 0.00020227 -0.00005308 0.00005371
0.31332776 0.18669128 0.44584268 -0.00032671 -0.00004990 -0.00004031
0.44936055 0.66097635 0.30264825 -0.00017987 0.00034789 -0.00014132
0.67428404 0.80332714 0.69508564 0.00019402 0.00022884 0.00000413
0.10671331 0.28847310 0.33930019 -0.00018808 -0.00032628 -0.00001008
0.79317760 0.58277041 0.41689330 0.00003431 -0.00000509 -0.00000813
0.41334397 0.49666825 0.24679279 -0.00011295 0.00009370 -0.00006751
0.53380859 0.64883918 0.20949742 -0.00008343 0.00016832 -0.00033185
0.49796396 0.57117260 0.18080312 -0.00014813 0.00010491 -0.00028122
0.53029275 0.68118334 0.25551739 -0.00007823 0.00020439 -0.00012399
0.42991567 0.46343446 0.16444941 -0.00026202 0.00000789 -0.00023916
0.79095429 0.76443011 0.43805131 0.00010900 0.00019231 -0.00004842
0.81414026 0.72518587 0.47751433 0.00008412 0.00008545 0.00000054
0.76438081 0.44430277 0.81592882 0.00006480 -0.00005794 0.00021368
0.65566337 0.78188336 0.30820739 -0.00002352 -0.00009786 -0.00011856
0.84026408 0.46387446 0.41061404 0.00020058 -0.00003538 -0.00029980
0.76250219 0.54085565 0.88287514 -0.00021062 -0.00010172 0.00009444
0.50233233 0.67136806 0.45625460 -0.00009214 0.00006571 0.00000076
0.48938060 0.61286217 0.71126741 -0.00016380 0.00003671 0.00016542
0.73915553 0.73170245 0.32041556 -0.00005770 -0.00003008 -0.00004371
0.89666933 0.62830365 0.44242698 -0.00002006 -0.00013522 -0.00004158
0.37792882 0.44815689 0.27893347 -0.00018694 0.00006368 0.00007243
0.43829963 0.62482411 0.27786216 -0.00020128 0.00020994 -0.00019385
0.39307964 0.33818167 0.15863515 -0.00009439 0.00024263 -0.00023020
0.73890525 0.48993364 0.29463166 0.00019738 -0.00016084 -0.00009262
0.68328881 0.76810175 0.76510376 0.00007602 0.00014341 0.00032417
0.46366856 0.23374301 0.27236924 -0.00008358 -0.00030422 -0.00000921
0.81024009 0.60750645 0.90126163 0.00000704 0.00004890 0.00040873
0.72797346 0.69600236 0.79397804 0.00005492 0.00007470 0.00009033
0.56905013 0.69872785 0.73963147 -0.00010151 0.00009957 0.00009865
0.71104980 0.51345307 0.84589869 0.00000436 -0.00000768 0.00023702
0.93412054 0.52891630 0.56687325 0.00027488 -0.00005442 0.00002828
0.71923512 0.71533829 0.35253444 -0.00003552 0.00005245 -0.00005085
0.79539931 0.49830142 0.40435740 0.00003082 0.00003135 -0.00009909
0.69500369 0.42946684 0.31043878 0.00004788 -0.00011777 -0.00012490
0.52554655 0.46172616 0.73554808 -0.00015228 -0.00006661 0.00006681
0.69830239 0.81717902 0.38525882 0.00011629 0.00017654 -0.00002053
0.74159521 0.76743567 0.69440913 0.00000045 0.00022322 0.00000142
0.85582423 0.69672245 0.53047317 0.00009433 0.00009158 -0.00000040
0.69316298 0.63204068 0.83273309 -0.00004116 0.00008387 0.00021068
0.75691724 0.31057405 0.61853957 0.00015054 -0.00019945 -0.00005077
0.27061534 0.28539726 0.31089735 -0.00004012 -0.00022609 0.00010214
0.84293133 0.49132866 0.85467577 0.00006803 -0.00031583 0.00010763
0.55349731 0.63997978 0.76647139 -0.00018449 0.00002125 0.00020484
0.62240535 0.34534821 0.76776147 -0.00008693 -0.00028191 0.00022481
0.54500920 0.71269840 0.44788927 -0.00007335 0.00007912 0.00003721
0.58764172 0.31986541 0.10634803 0.00001308 -0.00012684 -0.00049097
0.81120247 0.36021563 0.72029710 0.00015046 -0.00024753 0.00014385
0.50449187 0.63138431 0.20632225 -0.00009870 0.00032699 -0.00020628
0.53759003 0.34422764 0.69369543 -0.00019648 -0.00018888 0.00011320
0.39668754 0.26690254 0.46014506 -0.00004120 0.00002514 0.00008640
0.60576671 0.43466023 0.14218700 0.00011033 0.00013031 -0.00007450
0.26223058 0.16978700 0.58913893 -0.00054272 0.00024906 -0.00011980
0.62400627 0.29810110 0.15655635 0.00027944 -0.00032495 -0.00001103
0.71536165 0.75824362 0.33803594 -0.00000949 -0.00009505 -0.00005339
0.81375766 0.68044388 0.34101653 0.00006744 -0.00004650 -0.00010389
0.51906306 0.22936577 0.21551026 0.00007987 -0.00040706 -0.00011201
0.56603891 0.87266481 0.53791982 0.00017018 0.00048125 -0.00001071
0.78005069 0.77860886 0.29475114 0.00020340 0.00024311 -0.00011862
0.06342369 0.33634263 0.42609987 -0.00031898 0.00003520 0.00044294
0.93080401 0.64248967 0.52951735 0.00009425 -0.00019723 -0.00001889
0.33906484 0.20452318 0.59031516 0.00017730 -0.00024604 0.00027136
0.34723404 0.20148206 0.38705349 -0.00011693 -0.00029358 -0.00024441
0.41324949 0.47489101 0.18815774 -0.00018896 0.00019321 -0.00020542
0.44095483 0.50567621 0.53989935 -0.00020995 -0.00002363 0.00002829
0.18964359 0.34253231 0.37975699 -0.00008134 0.00001173 0.00018501
0.81081897 0.72071576 0.55085379 0.00006112 0.00011521 0.00001488
0.70282167 0.61510730 0.24117954 0.00016480 0.00011145 -0.00017067
0.79957318 0.51342720 0.40985596 0.00002362 0.00003609 -0.00008430
0.40935504 0.52393764 0.31479183 -0.00018268 -0.00000715 -0.00004014
0.82355189 0.71213806 0.56869781 0.00006346 0.00010224 0.00002663
0.80358630 0.74383473 0.44700280 0.00009536 0.00000747 0.00007846
0.58845311 0.30720028 0.51437134 -0.00010366 -0.00017171 -0.00009255
0.32254484 0.18766654 0.58002591 0.00008459 -0.00029034 0.00011542
0.90502822 0.59272945 0.73554164 0.00009505 0.00000553 0.00008186
0.85272491 0.64677167 0.41023785 0.00000639 -0.00006796 -0.00008075
0.71511543 0.75616080 0.67345208 0.00000478 0.00009449 0.00002485
0.58427685 0.44075221 0.13310634 0.00008506 0.00017565 -0.00008862
0.52200162 0.67599154 0.70669395 -0.00010682 0.00009849 0.00008693
0.70629638 0.78106230 0.31326842 -0.00001801 -0.00009593 -0.00011928
0.60529763 0.77065527 0.37961894 -0.00005726 0.00001900 -0.00007792
0.73518437 0.54156363 0.26233757 0.00016542 -0.00003437 -0.00019404
0.72403544 0.76953065 0.49957010 0.00001423 0.00004908 0.00002425
0.91161829 0.69731987 0.46034846 0.00013054 0.00028259 -0.00015035
0.39419457 0.47602126 0.24618973 -0.00021225 0.00008064 -0.00008383
0.81937242 0.63818270 0.43194646 -0.00000188 -0.00000534 -0.00007163
0.49694189 0.45865032 0.13395728 0.00006940 0.00015954 -0.00029079
0.43697321 0.52893168 0.49887255 -0.00015642 -0.00002170 0.00000330
0.94520402 0.63779759 0.60316837 0.00021955 -0.00012313 -0.00005831
0.87687641 0.44529575 0.47743523 0.00023687 -0.00014021 -0.00004737
0.85799509 0.45822325 0.42882863 0.00031094 -0.00001038 -0.00020793
0.47850692 0.39484525 0.46837878 -0.00005044 -0.00007450 -0.00000180
0.54782838 0.82444477 0.54684949 -0.00031643 0.00003203 0.00001520
0.70449686 0.76562977 0.62260598 0.00002794 0.00011566 0.00003662
0.60439909 0.35746029 0.36659619 -0.00000768 -0.00010559 -0.00011266
0.83002418 0.67869681 0.36324263 0.00008712 -0.00005618 -0.00004415
0.61488283 0.83367318 0.63505477 -0.00012080 0.00030564 0.00020254
0.68850642 0.44769755 0.83663076 0.00007481 -0.00005882 0.00031730
0.53829080 0.33225116 0.67884493 -0.00022963 -0.00019047 0.00011431
0.54327589 0.34826419 0.10343362 -0.00014140 0.00000386 -0.00034130
0.83327359 0.69264555 0.31867257 0.00010340 -0.00018096 -0.00005812
0.33430493 0.24661480 0.47189787 -0.00012634 0.00008355 0.00005215
0.88318157 0.69738036 0.64484984 0.00012199 0.00017095 -0.00008470
0.61653543 0.83998471 0.61994427 0.00005801 0.00039528 0.00004531
0.73770642 0.63539666 0.84860396 -0.00012139 -0.00010213 0.00005470
0.83221674 0.36970317 0.70511806 0.00020425 -0.00023120 0.00012406
0.38279206 0.33685201 0.17044128 -0.00021942 0.00016390 -0.00014846
0.35569465 0.38586795 0.27417597 -0.00014294 -0.00003773 0.00001268
0.65491503 0.48041305 0.84307957 0.00005999 -0.00009222 0.00034269
0.50437725 0.36702773 0.52062637 -0.00010025 -0.00007565 -0.00005332
0.70686954 0.35591346 0.78056943 0.00005102 -0.00020832 0.00023966
0.49930170 0.48647672 0.68718201 -0.00013856 0.00004220 0.00006161
0.84458727 0.70278132 0.53770667 0.00006481 0.00011272 0.00002163
0.41734096 0.56142026 0.42832083 -0.00023584 0.00003246 0.00003192
0.51792634 0.47176105 0.72282726 -0.00015915 -0.00001363 0.00002542
0.51340699 0.68135852 0.69289213 -0.00014355 0.00005420 0.00008318
0.60476238 0.83618557 0.62060630 -0.00021570 0.00021914 0.00016533
0.44162005 0.67272758 0.57878679 -0.00028579 0.00017173 -0.00011173
0.74493432 0.77664632 0.44209272 -0.00001728 0.00005903 -0.00009273
0.82243454 0.36851561 0.71948099 0.00020420 -0.00021420 0.00015780
0.47092628 0.64026397 0.51700479 -0.00005900 0.00004334 -0.00006016
0.64400017 0.67156100 0.80836672 0.00001080 0.00012329 0.00021823
0.32555693 0.35959643 0.32857910 -0.00005076 0.00001823 0.00007089
0.62229800 0.35633248 0.27420262 0.00011980 -0.00001439 -0.00000943
0.59046328 0.78750306 0.66047859 -0.00000210 0.00021580 0.00004038
0.74868989 0.61387861 0.32382080 0.00003608 0.00007363 -0.00005046
0.46212739 0.48508573 0.61447477 -0.00020675 0.00001242 0.00001125
0.87837231 0.66771817 0.79097730 0.00021098 0.00016260 0.00012471
0.59521836 0.28870317 0.65572673 -0.00010301 -0.00030208 0.00006411
0.45689198 0.43307307 0.51803011 -0.00012789 -0.00009920 -0.00000356
0.85760349 0.59992903 0.88746232 0.00016513 0.00009525 0.00038154
0.48528591 0.22801030 0.25258121 -0.00003295 -0.00034454 -0.00003314
0.70788270 0.76335394 0.76178086 0.00003400 0.00010931 0.00031002
0.49504957 0.37256104 0.54842454 -0.00011094 -0.00009076 -0.00007125
0.26520392 0.32142755 0.35274190 -0.00005502 -0.00002925 0.00012715
0.25822955 0.14893171 0.57577705 -0.00061260 -0.00033474 -0.00014395
0.82302064 0.60350949 0.43666518 -0.00001216 0.00001990 -0.00007165
0.80575466 0.74256480 0.64526963 0.00009684 0.00022179 -0.00000894
0.11394928 0.29718560 0.36917800 -0.00004652 -0.00021270 0.00009011
0.60358942 0.37455592 0.09821679 0.00015799 -0.00016929 -0.00047347
0.40848154 0.36743221 0.35410464 -0.00003529 -0.00003957 0.00002775
0.50917834 0.22422723 0.26334751 0.00011848 -0.00041649 0.00001246
0.50181723 0.35658595 0.56761760 -0.00013857 -0.00014296 -0.00003131
0.49835065 0.33433807 0.35928273 -0.00003128 -0.00006173 0.00001725
0.64992982 0.42601961 0.24599677 0.00000833 -0.00011321 -0.00008050
0.51150179 0.34720257 0.56230062 -0.00013521 -0.00012588 -0.00003971
0.24638952 0.33484587 0.27665117 -0.00008146 0.00024266 -0.00005804
0.75018096 0.72738010 0.29570132 -0.00008743 -0.00006928 -0.00002729
0.57869756 0.29918692 0.66826028 -0.00010730 -0.00029106 0.00012484
0.64938974 0.37169400 0.38450882 -0.00000050 -0.00010404 -0.00009626
0.35495922 0.22822584 0.55152541 -0.00010641 0.00012148 0.00011990
0.73343819 0.75115544 0.65290600 -0.00000955 0.00007091 0.00000398
0.76562244 0.75785935 0.68419659 0.00010738 0.00019893 -0.00004152
0.83790749 0.44412035 0.76887149 0.00018487 -0.00009593 0.00012632
0.66756719 0.83393067 0.36842880 0.00009198 0.00020429 -0.00001486
0.37766403 0.44011930 0.29413354 -0.00016697 0.00004562 0.00005309
0.77383202 0.54937679 0.35510895 0.00012277 -0.00004383 -0.00002594
0.31922761 0.13735728 0.50485480 0.00034321 -0.00017060 0.00045150
0.59550333 0.38333783 0.78692454 -0.00010130 -0.00015583 0.00033391
0.79870528 0.33176032 0.63612682 0.00008947 -0.00028090 0.00004069
0.54788971 0.70410126 0.29505062 -0.00011591 0.00018519 -0.00007165
0.59115517 0.31530732 0.27398947 0.00007002 -0.00017980 0.00000196
0.68659467 0.36122477 0.78752923 0.00001697 -0.00020261 0.00025349
0.78668278 0.32534868 0.66426569 0.00019792 -0.00019899 -0.00004379
0.81386012 0.70894277 0.79877758 0.00005631 0.00024557 0.00016877
0.83595055 0.74637377 0.32806724 0.00013456 0.00023841 -0.00001011
0.40716156 0.46612766 0.38344720 -0.00016609 -0.00005387 -0.00002338
0.32304940 0.19802755 0.41963738 -0.00032340 -0.00005618 -0.00014821
0.61741537 0.45255592 0.18983048 0.00002945 -0.00006446 -0.00006510
0.36917275 0.42704570 0.25376633 -0.00022043 -0.00000959 -0.00008111
0.77876467 0.65514588 0.33742884 0.00001169 0.00003707 -0.00011818
0.46505389 0.70760667 0.59511465 -0.00022962 0.00026250 -0.00010495
0.60946333 0.66461891 0.79541099 -0.00014479 -0.00000846 0.00017627
0.86929816 0.61188209 0.44941509 0.00001051 0.00005327 -0.00008571
0.62728316 0.81671804 0.30063882 -0.00013199 0.00000337 -0.00036727
0.86797255 0.72209388 0.37700000 0.00008087 0.00014369 -0.00021176
0.65833074 0.83474123 0.42065698 0.00005018 0.00022684 -0.00002066
0.69245660 0.79989362 0.29639158 0.00003765 -0.00025607 -0.00022522
0.64361668 0.78796160 0.72258991 -0.00025540 0.00006768 0.00006437
0.78117287 0.77674401 0.31534484 0.00010566 0.00021645 -0.00005611
0.68742305 0.37570715 0.40686491 0.00002817 -0.00012529 -0.00007794
0.56880069 0.78885442 0.51889390 -0.00004824 -0.00005541 -0.00003328
0.79245669 0.76138735 0.42346162 0.00005189 0.00013926 -0.00011264
0.46498609 0.53746974 0.59339827 -0.00005448 0.00002231 0.00004804
0.43565887 0.59121734 0.44239387 -0.00013781 0.00009288 0.00003346
0.71482235 0.52586144 0.22613609 0.00027177 -0.00007144 -0.00021440
0.51313090 0.66575718 0.70972294 -0.00010278 0.00015842 0.00015115
0.49723008 0.63786620 0.71157736 -0.00021998 0.00005928 0.00013569
0.88627511 0.46776646 0.70187914 0.00017399 -0.00003532 0.00005150
0.16974257 0.28944591 0.30471739 -0.00018875 -0.00032845 -0.00018475
0.71670175 0.45130944 0.83400130 0.00004140 -0.00001806 0.00028288
0.77484518 0.35656899 0.53816444 0.00010558 -0.00005205 -0.00002230
0.88995564 0.58606750 0.86515468 0.00037047 0.00014488 0.00022251
0.75249958 0.60440880 0.32335499 0.00005126 0.00006257 -0.00006208
0.43724602 0.48634595 0.49950388 -0.00013640 0.00000828 0.00004049
0.34773940 0.20057462 0.54068166 -0.00001445 -0.00022521 0.00003319
0.51328433 0.58443588 0.17826898 -0.00016188 -0.00000539 -0.00029065
0.63985139 0.72988194 0.77276027 -0.00002017 0.00014089 0.00012547
0.37686563 0.44565746 0.22316115 -0.00033559 0.00007292 -0.00005052
0.87919343 0.51459140 0.85749894 0.00031354 -0.00024014 0.00020412
0.79943347 0.62208408 0.36226416 0.00012310 0.00000991 -0.00008057
0.68224573 0.78013229 0.58983237 0.00001636 0.00013401 0.00000881
0.66197896 0.29549024 0.51163375 0.00002488 -0.00024963 -0.00012471
0.26569963 0.35896271 0.35326019 -0.00002878 -0.00000169 0.00012958
0.44584149 0.57391906 0.56471211 -0.00007982 -0.00010024 -0.00005614
0.82887691 0.39756751 0.45543036 0.00013872 -0.00029514 -0.00013540
0.55785036 0.80984622 0.50280255 -0.00016099 -0.00005366 -0.00006310
0.72486860 0.70750976 0.34533000 -0.00002563 0.00005438 -0.00004423
0.66687047 0.37198949 0.79678023 0.00003702 -0.00020939 0.00026500
0.61572969 0.73885125 0.36135110 0.00001419 0.00002013 -0.00006822
0.87225133 0.43730745 0.48571423 0.00015634 -0.00009365 -0.00004360
0.93010974 0.63503903 0.56006277 0.00007422 -0.00009304 -0.00000778
0.40813681 0.54844922 0.34286529 -0.00022538 0.00001355 -0.00004178
0.44149008 0.57832378 0.64366150 -0.00026324 -0.00006526 0.00019588
0.68625081 0.73821664 0.77874327 0.00009376 0.00008334 0.00020486
0.37820008 0.21867295 0.55610693 0.00003653 -0.00005650 0.00030336
0.46263355 0.33458269 0.13004501 0.00000297 0.00010158 -0.00019615
0.43800008 0.34532961 0.13317659 0.00001908 0.00009685 -0.00029740
0.86045015 0.72843367 0.31000528 0.00050114 0.00006706 -0.00008913
0.38188949 0.40838870 0.32437462 -0.00011859 -0.00001121 0.00003609
0.90627474 0.44628313 0.61775404 0.00030793 -0.00006152 0.00008719
0.35074019 0.31765011 0.22076829 -0.00027467 -0.00005655 -0.00005717
0.78378457 0.46146622 0.40106034 0.00003492 -0.00000042 -0.00012343
0.69076204 0.70152438 0.36458760 -0.00000691 0.00004800 -0.00005642
0.79484713 0.73178965 0.75957447 0.00004217 0.00024463 0.00013299
0.84705353 0.62183142 0.44231799 -0.00000269 0.00001905 -0.00007246
0.66916651 0.32931092 0.75605214 0.00004233 -0.00026223 0.00019141
0.81504279 0.40333900 0.76243877 0.00014715 -0.00013798 0.00017061
0.81152856 0.34138671 0.65804291 0.00016037 -0.00024836 0.00002990
0.50364417 0.73670614 0.57708895 -0.00016830 0.00016435 -0.00008410
0.53597301 0.71219546 0.35080114 -0.00001892 0.00018662 0.00000437
0.42623672 0.28268224 0.40222043 0.00002274 -0.00000984 0.00004670
0.48307070 0.66772223 0.42555660 -0.00004163 0.00014476 0.00005886
0.52198309 0.33385611 0.57593936 -0.00016204 -0.00013367 -0.00003988
0.38946855 0.33623931 0.33601606 -0.00008084 -0.00003587 -0.00000549
0.35179618 0.37433630 0.23813760 -0.00023533 0.00000503 -0.00005187
0.32378891 0.16983783 0.51011604 0.00012109 -0.00023472 0.00010809
0.76703763 0.73946559 0.58799654 0.00005731 0.00009157 0.00004051
0.34480807 0.23018600 0.37352619 -0.00027149 -0.00003046 -0.00008690
0.72265005 0.57821238 0.24568999 0.00019015 0.00004779 -0.00018941
0.46945214 0.49241775 0.63141376 -0.00013250 0.00008976 0.00010245
0.65201676 0.79582238 0.72793835 -0.00016341 0.00030307 0.00015953
0.58779347 0.28769726 0.58905089 -0.00014081 -0.00024249 -0.00004709
0.86841333 0.70606714 0.65292460 0.00011377 0.00018885 0.00000011
0.23947005 0.33962354 0.36472404 -0.00006644 -0.00002944 0.00013938
0.38833264 0.30777994 0.37112197 -0.00006627 0.00001290 0.00000254
0.58804381 0.58806157 0.16981159 0.00007799 0.00014683 -0.00028103
0.36023819 0.20580518 0.54212672 0.00001082 -0.00022272 0.00000818
0.52816868 0.72843528 0.67816275 -0.00017507 0.00017733 0.00013838
0.44957855 0.47079310 0.53208053 -0.00013111 -0.00003269 -0.00000811
0.87011284 0.42093921 0.69036281 0.00017873 -0.00013814 0.00006299
0.88909185 0.69299668 0.67164612 0.00010700 0.00020911 0.00001064
0.77402169 0.75375903 0.26125252 -0.00025268 -0.00012084 -0.00028302
0.86346537 0.69043750 0.55327892 0.00006803 0.00009927 -0.00001075
0.60915256 0.50002664 0.17070365 0.00004289 -0.00011001 -0.00020971
0.42201933 0.53896576 0.45202830 -0.00018616 0.00003226 0.00008123
0.77326691 0.53015149 0.37929359 0.00006246 -0.00005286 -0.00001560
0.83010000 0.56220341 0.43455485 0.00000525 0.00004278 -0.00009095
0.66603893 0.64866400 0.82297504 -0.00005292 0.00010673 0.00022765
0.56345874 0.58400404 0.16420400 0.00004557 0.00022954 -0.00032272
0.57842064 0.72004414 0.35038862 0.00003542 0.00010953 0.00000380
0.73937428 0.57253778 0.84257257 0.00003930 0.00003171 0.00008858
0.49953496 0.51198375 0.68348378 -0.00006384 -0.00003231 0.00003901
0.75618583 0.39376992 0.45511469 0.00007559 -0.00002015 -0.00002762
0.90797651 0.47853038 0.53536707 0.00016688 -0.00007303 -0.00003679
0.61717236 0.84865373 0.31422427 -0.00034999 0.00007746 -0.00033308
0.53965837 0.46037313 0.15913086 0.00003460 0.00003787 -0.00008085
0.65907103 0.35258007 0.42985228 -0.00000889 -0.00009177 -0.00009526
0.33019170 0.35808593 0.26191938 -0.00008410 0.00008531 -0.00007748
0.81609470 0.35789946 0.70708710 0.00016665 -0.00025423 0.00008265
0.45584977 0.44934928 0.55821723 -0.00017757 -0.00007696 0.00002201
0.76325619 0.78721482 0.29863670 0.00015776 0.00026351 -0.00016665
0.45092759 0.43804207 0.49316245 -0.00010935 -0.00008833 -0.00000992
0.80103517 0.69836533 0.82501268 0.00007507 0.00027931 0.00018382
0.82868481 0.48720169 0.40736622 0.00006187 0.00007946 -0.00023090
0.40158308 0.22020765 0.36301416 0.00010593 -0.00029766 -0.00000794
0.76225513 0.67675281 0.84224558 -0.00010704 0.00020669 0.00012026
0.37574264 0.34282774 0.32494780 -0.00005948 -0.00003890 0.00002580
0.66920441 0.61696494 0.83145261 -0.00002907 0.00007672 0.00020969
0.61261511 0.33580092 0.45142365 -0.00006565 -0.00011246 -0.00009255
0.84519672 0.70783347 0.45987698 0.00007432 0.00007000 -0.00004795
0.62778854 0.32388338 0.46708712 -0.00004087 -0.00015177 -0.00009407
0.75517827 0.77653569 0.42126575 0.00005443 0.00010117 0.00004298
0.61926651 0.64785427 0.21393439 0.00008771 0.00014022 -0.00025320
0.26855588 0.14546028 0.54792243 -0.00037772 -0.00007775 -0.00024590
0.25676510 0.37985590 0.30725476 -0.00004248 0.00020231 -0.00000535
0.72722030 0.39758527 0.80711061 0.00010212 -0.00012350 0.00026068
0.53497756 0.75447190 0.56163460 -0.00008669 0.00007784 -0.00013233
0.41790608 0.24264604 0.38004199 0.00002893 -0.00010711 0.00001636
0.90034181 0.63643003 0.79765940 0.00026632 0.00013694 0.00010786
0.74437320 0.32608092 0.52353269 0.00016826 -0.00016357 -0.00010700
0.58062214 0.26081783 0.18737546 0.00027845 -0.00029082 0.00004098
0.55009609 0.55619693 0.15721026 -0.00010960 -0.00004595 -0.00036745
0.81325787 0.39427286 0.45439377 -0.00001471 -0.00026343 -0.00012697
0.64799958 0.70316082 0.32033968 0.00003514 0.00008545 0.00001201
0.91579616 0.55680406 0.71131986 0.00021233 -0.00005124 0.00010676
0.75059271 0.63432133 0.87323916 -0.00019740 0.00012654 0.00019139
0.59486473 0.36883855 0.33262694 -0.00000643 -0.00006030 -0.00004645
0.53121227 0.32526791 0.57868826 -0.00014219 -0.00016604 -0.00004630
0.66657746 0.35567856 0.19520395 0.00035055 -0.00007945 0.00008677
0.56995434 0.25773874 0.16341282 0.00015303 -0.00041011 -0.00012828
0.77504945 0.38523340 0.47662872 -0.00002714 -0.00008586 -0.00005898
0.84544706 0.48665756 0.41811800 0.00016348 0.00004560 -0.00020574
0.48044288 0.32567966 0.12335727 -0.00004304 0.00010731 -0.00023754
0.91911900 0.49295300 0.55394495 0.00018314 -0.00010344 -0.00007145
0.40451202 0.40208039 0.35283557 -0.00007985 -0.00002572 0.00001345
0.52389640 0.54296994 0.16186036 -0.00007942 0.00002208 -0.00033385
0.31029874 0.20906672 0.58033836 -0.00014112 0.00016835 -0.00000067
0.73019117 0.75366294 0.62212807 0.00002891 0.00010362 0.00002253
0.93206024 0.53602952 0.59632397 0.00016601 -0.00015748 0.00002068
0.62427187 0.59305400 0.82183188 0.00000093 0.00007147 0.00024322
0.48999739 0.58386111 0.19566332 -0.00008727 0.00006222 -0.00014499
0.50608146 0.36953041 0.50072861 -0.00008684 -0.00007278 -0.00004537
0.79677743 0.64690083 0.34969595 0.00009504 0.00002228 -0.00011071
0.30632353 0.37626177 0.30445823 -0.00003949 0.00011657 0.00006623
0.75068557 0.31757021 0.55869597 0.00014672 -0.00022767 -0.00001350
0.63762802 0.29895282 0.50403535 -0.00001389 -0.00023630 -0.00011272
0.94127727 0.64640278 0.57644391 0.00008851 -0.00029939 -0.00002264
0.48414198 0.69097602 0.31669143 -0.00017535 0.00028003 -0.00004190
0.74768722 0.70341265 0.32949701 -0.00003474 0.00002871 -0.00005775
0.55269080 0.72443503 0.43005976 -0.00009134 0.00009819 0.00003262
0.36396313 0.40441754 0.28993714 -0.00015987 -0.00003022 0.00005445
0.63635409 0.32942638 0.45484906 -0.00003364 -0.00016725 -0.00010184
0.80944335 0.62205905 0.43138379 0.00002997 0.00002500 -0.00004474
0.48267105 0.39062464 0.58044899 -0.00016725 -0.00005184 -0.00005540
0.72442615 0.79306942 0.30726847 -0.00005767 -0.00013108 -0.00022837
0.48973903 0.37187806 0.60764813 -0.00022048 -0.00011260 0.00008825
0.58286732 0.46765992 0.17560244 -0.00000186 -0.00008217 -0.00009049
0.07533477 0.28538752 0.36563227 0.00002098 -0.00037394 0.00016706
0.65623254 0.32427657 0.46200103 -0.00000911 -0.00018000 -0.00013426
0.67825925 0.38841018 0.37697178 0.00002939 -0.00009874 -0.00010922
0.63570583 0.31177130 0.48265690 -0.00006569 -0.00017040 -0.00014328
0.85779721 0.38531333 0.66168714 0.00023176 -0.00015112 0.00008117
0.68476450 0.56772780 0.84404677 -0.00001121 -0.00000508 0.00024941
0.31863099 0.21486323 0.43419400 -0.00024950 -0.00001780 -0.00003253
0.51405525 0.50945443 0.16898651 -0.00005407 -0.00009035 -0.00017401
0.75975811 0.57899463 0.89420414 -0.00021515 -0.00009323 0.00024982
0.38911414 0.46584189 0.22405645 -0.00025949 0.00014302 -0.00001409
0.90236896 0.65191263 0.73343450 0.00021581 0.00004083 0.00003849
0.89216369 0.67381984 0.60110241 0.00000963 0.00008502 0.00000470
0.68238777 0.59088391 0.84233361 0.00003012 0.00001590 0.00027535
0.50917268 0.60071129 0.73665816 -0.00018434 -0.00003488 0.00016805
0.79854220 0.41369841 0.42421320 -0.00001055 -0.00017322 -0.00020968
0.82890356 0.45391786 0.40690446 0.00011338 -0.00008315 -0.00032131
0.89810789 0.43312797 0.62398732 0.00025507 -0.00014695 0.00010450
0.53666806 0.48400316 0.76789784 -0.00021315 -0.00003660 0.00022086
0.56930286 0.53694582 0.15560290 0.00002718 -0.00003145 -0.00034799
0.17948681 0.32039097 0.28440300 -0.00025614 0.00025248 -0.00030266
0.50288373 0.56386405 0.74055904 -0.00030348 -0.00003719 0.00015150
0.07116579 0.29595524 0.32427126 -0.00050588 -0.00009041 -0.00045348
0.67171031 0.68323469 0.29951909 0.00007582 0.00009225 0.00000357
0.70648444 0.44886246 0.29085502 0.00007227 -0.00008690 -0.00021261
0.58618617 0.71371877 0.31176117 0.00001676 0.00014669 -0.00005930
0.62070274 0.34496713 0.27078849 0.00015210 -0.00009840 -0.00001615
0.91984320 0.62992471 0.70422357 0.00015866 0.00003589 0.00017036
0.53709513 0.70658457 0.39551651 -0.00003333 0.00008519 0.00001614
0.84151614 0.40417618 0.46182668 0.00021588 -0.00017267 -0.00015789
0.93826514 0.67705637 0.42867282 0.00051772 0.00007063 -0.00011442
0.61925685 0.56783843 0.16909307 0.00001785 -0.00001429 -0.00034779
0.60628897 0.85069609 0.51198173 0.00017162 0.00014121 0.00005356
0.53625149 0.32400286 0.34177056 -0.00001668 -0.00009938 0.00003791
0.42386487 0.60470748 0.35740900 -0.00022191 0.00004953 0.00004930
0.09600595 0.31756780 0.34325036 -0.00020599 0.00019664 -0.00007216
0.66463101 0.30212149 0.49785379 0.00003536 -0.00024916 -0.00012551
0.33381569 0.34341630 0.32923785 -0.00004435 -0.00002286 0.00006120
0.80482793 0.62188065 0.39196676 0.00007734 0.00000495 0.00001470
0.47800803 0.44421399 0.64720076 -0.00018713 -0.00001675 0.00001754
0.93500614 0.57448822 0.63464379 0.00023196 0.00003448 0.00000487
0.78630900 0.38864511 0.77786249 0.00018252 -0.00020172 0.00019066
0.63058913 0.83243233 0.62577391 0.00020405 0.00028148 -0.00000245
0.10404518 0.37958467 0.40500566 -0.00015254 0.00028320 0.00040110
0.64405262 0.37853271 0.22468293 0.00009079 -0.00002556 0.00003200
0.69131023 0.77596897 0.69477803 0.00012174 0.00001672 -0.00005671
0.54253566 0.69137889 0.50281471 -0.00001054 0.00004896 -0.00001798
0.49262035 0.30128676 0.33433118 -0.00000351 -0.00007065 0.00005116
0.37581530 0.38560560 0.19487779 -0.00028299 0.00002532 -0.00013334
0.75608814 0.68004018 0.83420807 -0.00007833 0.00015333 0.00017471
0.54449981 0.24313368 0.18194871 0.00012614 -0.00041735 -0.00004059
0.88451123 0.45757419 0.70441008 0.00022522 -0.00001579 0.00012046
0.27543417 0.13516462 0.53606868 -0.00044722 -0.00007598 -0.00024651
0.38063574 0.28992382 0.19342062 -0.00022964 -0.00026548 -0.00013873
0.49172667 0.72814626 0.62527335 -0.00022021 0.00021438 0.00003836
0.79638022 0.67149961 0.33888683 0.00004799 -0.00000164 -0.00010877
0.41323256 0.25620484 0.29069197 -0.00008875 -0.00015706 -0.00005705
0.59961981 0.77819067 0.39424017 -0.00009317 0.00004716 -0.00004180
0.47455031 0.68971252 0.34050146 -0.00015175 0.00030703 -0.00008658
0.43835044 0.56585807 0.47547022 -0.00014036 0.00004014 0.00002438
0.86536986 0.39710978 0.61161608 0.00012379 -0.00009960 0.00006011
0.62149960 0.62736315 0.19962803 0.00010086 0.00013727 -0.00023834
0.45964250 0.62512928 0.24080333 -0.00025417 0.00022090 -0.00010443
0.06036719 0.30420595 0.35768428 -0.00042122 0.00035084 -0.00002827
0.90369207 0.44075707 0.58821213 0.00025293 -0.00016644 -0.00006709
0.60298789 0.32248917 0.10902184 0.00022424 -0.00018975 -0.00046281
0.88096148 0.46330607 0.46994662 0.00024351 -0.00005458 -0.00013008
0.54223210 0.35415596 0.44127658 -0.00003582 -0.00008448 -0.00001142
0.57211471 0.79859066 0.60861850 -0.00007390 0.00008638 0.00006246
0.89901453 0.46309939 0.49606234 0.00029950 -0.00014959 -0.00018128
0.54257113 0.66714662 0.22668588 -0.00004209 0.00023786 -0.00023978
0.45410597 0.66492331 0.36882758 -0.00022001 0.00015944 0.00006024
0.59840882 0.78579473 0.43847919 -0.00007278 0.00005253 0.00002333
0.59823769 0.33378989 0.74145275 -0.00011684 -0.00025403 0.00017469
0.90732825 0.48111698 0.50519300 0.00031845 -0.00003320 -0.00008967
0.33456814 0.31063136 0.31564111 -0.00003102 -0.00003750 0.00005808
0.62624168 0.44450060 0.82388085 -0.00004736 -0.00007988 0.00029160
0.74472839 0.45361838 0.82640535 0.00012130 -0.00007469 0.00019462
0.60917836 0.85330534 0.48755813 0.00010534 0.00023694 0.00000637
0.26011950 0.28950161 0.32502854 -0.00007292 -0.00019468 0.00009312
0.72420335 0.28270406 0.64390123 0.00016703 -0.00035221 -0.00003920
0.40721086 0.49307811 0.40511626 -0.00019080 -0.00013086 0.00001067
0.39604408 0.35631713 0.34839293 -0.00005413 -0.00006072 0.00003051
0.73643494 0.62150359 0.84279776 -0.00003740 -0.00006019 0.00005613
0.62929094 0.30751354 0.13810040 0.00037582 -0.00035196 -0.00016685
0.68398792 0.50831938 0.20492965 0.00016431 -0.00009489 -0.00020243
0.88026959 0.42709816 0.50912464 0.00023089 -0.00010568 -0.00013625
0.78894651 0.59050369 0.35697627 0.00013698 -0.00005899 -0.00006047
0.91844732 0.52813560 0.68443877 0.00026181 -0.00002808 0.00006954
0.75317371 0.58829892 0.88939422 -0.00028547 -0.00004270 0.00017276
0.49247262 0.69266737 0.39375171 -0.00009134 0.00018640 0.00009852
0.87377560 0.60240829 0.45029664 0.00001160 0.00006163 -0.00012678
0.89713508 0.42852068 0.60870808 0.00023018 -0.00023356 -0.00001505
