-0.197997 0.073815 0.026816
-0.026606 -0.236245 0.044057
0.038144 0.265791 0.074735
0.264728 0.073426 0.110614
-0.201686 -0.081528 0.135990
-0.061902 -0.226647 0.118813
0.022975 -0.185553 0.022908
-0.196845 -0.109742 0.118776
0.006173 -0.201882 0.025053
0.111159 -0.249448 0.147292
0.194003 0.245089 0.322942
0.162824 -0.227122 0.498503
0.227485 0.023043 0.208031
-0.144244 -0.022135 0.007806
-0.148490 -0.141661 -0.188965
-0.153984 -0.213101 -0.291733
0.045247 0.158194 0.195340
0.020078 0.258029 0.126257
0.163446 -0.115517 0.036204
0.266142 -0.000918 0.148450
-0.038131 0.113967 0.189387
0.137630 -0.227107 0.462082
0.258234 0.050092 0.155997
-0.205526 -0.080269 0.081552
0.160992 0.213517 0.405844
-0.217488 -0.005069 0.093747
0.229167 -0.227353 0.083339
-0.162925 0.194709 -0.405040
-0.250519 0.118249 -0.481764
-0.181048 -0.188341 -0.421196
-0.166258 -0.110405 0.033366
-0.067017 0.252185 -0.134682
-0.078778 0.094322 0.008545
-0.219491 -0.168400 0.332139
0.069754 -0.054474 0.007490
-0.217644 -0.043194 0.120566
0.095031 0.091186 0.015983
0.087374 0.167967 0.026633
0.239130 -0.126678 0.073709
-0.188300 -0.103346 -0.172721
0.212456 -0.233639 0.222586
-0.196083 -0.067426 -0.159121
-0.138980 0.167142 -0.206648
-0.193244 0.174467 0.237453
0.182739 -0.254964 0.255779
0.061738 -0.081785 0.204674
0.176813 -0.210225 0.268872
0.179610 0.262317 -0.090555
0.022777 0.145006 0.194162
-0.192535 -0.136984 0.166082
0.178444 0.185885 0.191407
0.092004 0.074687 0.208862
0.159192 -0.143853 0.196237
-0.010543 -0.167556 0.017337
0.190467 0.084079 0.206233
-0.064162 -0.227077 0.065322
0.237979 0.114899 0.167633
-0.189155 -0.100012 0.034065
-0.125247 0.210637 0.145289
0.157904 -0.245963 0.054512
0.043381 0.248192 0.173057
0.166729 0.242970 0.481547
-0.024736 -0.239052 0.156023
-0.236421 -0.043483 -0.454648
-0.207880 -0.049618 -0.185874
0.163643 0.054784 0.213058
0.204939 0.105449 0.046902
-0.020833 0.254929 0.094691
0.193981 0.222991 0.307005
-0.042185 0.239788 0.163049
-0.012674 0.015200 0.199956
0.184721 -0.026743 0.032459
-0.237444 0.187172 0.398234
0.046120 -0.038603 0.001796
-0.095585 0.228576 0.050128
0.220624 -0.023593 0.209111
0.223084 -0.040544 0.207034
-0.213734 0.073189 0.118221
0.100097 0.239154 0.176072
0.140862 0.229513 0.498080
-0.189275 0.170307 -0.448616
-0.226625 -0.083873 -0.439743
-0.074119 0.238730 0.086253
-0.085366 -0.232538 -0.126473
0.051840 -0.073245 0.204608
-0.267117 -0.057331 -0.468787
-0.192170 -0.156435 0.228237
-0.000579 -0.218297 0.172736
-0.190088 0.095947 0.142886
-0.163259 -0.166180 -0.279382
0.128048 -0.271203 -0.025126
0.021754 0.078606 0.003977
-0.150937 0.117515 -0.019068
-0.238827 0.161443 0.350018
-0.230450 0.064247 -0.447920
-0.198824 -0.099532 0.135905
-0.208352 0.057223 -0.202155
0.233469 -0.119693 0.179968
-0.176255 0.021035 0.152129
-0.242158 -0.023485 -0.466443
0.027085 0.226927 0.178095
-0.240362 0.170217 0.399921
0.177860 -0.232891 0.070691
0.160713 0.216786 0.316271
0.128312 0.237848 0.053171
0.217028 0.197176 0.062702
-0.213931 -0.184828 -0.448308
-0.190830 -0.158092 -0.406086
0.149144 0.285143 -0.070771
0.146316 0.246272 0.376397
0.086127 0.256597 -0.115806
-0.003094 0.064273 0.199576
-0.211221 0.186050 -0.450559
0.068285 -0.192745 0.184528
0.076740 0.042451 0.007097
-0.198699 -0.189630 -0.381713
0.235098 0.015895 0.208011
-0.144194 0.159526 -0.206684
-0.154028 0.155046 -0.080651
0.147343 0.064585 0.213217
0.155220 -0.249598 0.066733
0.135380 -0.273721 -0.039799
0.216316 0.146023 0.190104
0.232093 0.244663 0.127863
-0.104913 0.033039 0.002424
-0.263467 0.191273 0.401290
-0.210294 0.038680 -0.184067
0.173218 0.251550 0.227628
0.060424 0.194081 0.189218
0.158772 -0.174462 0.048908
-0.180987 -0.215540 -0.391425
0.272804 0.023604 0.123290
-0.171305 -0.177647 -0.234575
-0.218390 -0.017095 0.104787
-0.199551 -0.048568 0.140179
0.252048 -0.057730 0.184349
0.083557 -0.109472 0.202229
0.093204 0.084717 0.014877
-0.168922 0.191737 -0.279084
-0.142651 0.210431 -0.360672
0.127231 -0.232116 -0.011756
0.105811 -0.284134 -0.100581
0.169716 0.118275 0.203318
0.172076 -0.255120 0.097692
-0.145649 -0.198319 -0.313645
-0.104157 -0.194762 0.034709
0.157280 -0.235170 0.300261
-0.190504 -0.091562 -0.195533
-0.136920 0.179470 0.153496
0.150819 -0.055222 0.025012
-0.038674 0.053840 0.193745
-0.174775 -0.151167 0.112579
-0.139302 0.098028 0.159650
-0.067327 0.244356 -0.153849
-0.066294 -0.196715 0.164280
0.156934 0.293778 -0.103405
-0.074705 0.034159 0.186265
0.217166 -0.094781 0.052596
-0.058528 0.242151 0.100015
0.254317 0.119817 0.098058
-0.168639 0.170660 -0.175426
0.170213 -0.248578 0.176103
-0.051893 -0.220949 -0.118388
-0.242074 -0.132700 -0.435710
0.005997 0.071730 0.002971
0.049683 -0.249372 -0.131064
-0.045850 -0.017841 -0.000117
-0.140513 0.229263 -0.294206
-0.236928 -0.053210 -0.456535
0.052615 -0.258733 -0.108026
-0.082394 -0.218777 0.104431
-0.051961 -0.218030 -0.126939
-0.229873 0.174844 0.296085
0.107379 0.251963 -0.057770
-0.145834 0.193646 0.063348
-0.175159 -0.105859 -0.092181
0.170042 0.211664 0.355352
0.138864 -0.067955 0.211706
-0.207883 0.151790 0.237366
-0.224677 0.168049 0.359000
-0.258772 0.167577 0.435999
-0.022518 -0.100283 0.005306
0.251193 0.131651 0.112558
-0.262233 -0.065249 -0.448687
-0.054565 -0.233274 -0.150315
-0.154751 0.163061 -0.115280
-0.169126 0.162885 -0.142591
-0.214876 -0.041070 0.101132
0.170012 -0.275569 -0.115880
0.094165 0.289948 -0.119330
-0.229350 -0.074450 -0.441652
-0.104592 -0.019876 0.177505
-0.164851 -0.156550 0.077182
0.156439 0.236355 0.311078
0.136299 -0.254288 0.034817
0.127235 -0.071319 0.211200
-0.060831 0.076467 0.186125
0.232388 0.229398 0.074130
0.099638 0.259681 0.167499
-0.123420 -0.212450 -0.154487
0.212693 0.092673 0.202000
-0.188607 -0.099746 -0.167564
-0.146649 0.214054 -0.381441
-0.179147 0.166650 0.236472
-0.230363 0.154104 -0.455601
-0.156269 -0.173043 0.137300
0.108995 0.262880 -0.104547
0.087318 -0.210407 0.180768
0.155078 0.247872 0.499325
-0.030789 -0.148082 0.181682
0.141361 0.215394 0.436658
-0.151948 0.143646 -0.189417
-0.229134 0.172740 0.373603
0.075027 -0.260215 -0.107745
-0.109036 -0.094583 0.018226
0.262961 0.062562 0.136169
-0.199713 0.167549 0.306862
-0.203786 0.059036 -0.168381
-0.058876 0.242113 0.091370
-0.128769 0.209845 0.068977
0.172977 0.213010 0.070062
-0.140648 0.103438 0.028624
-0.216952 0.119973 -0.452977
-0.062926 0.221225 -0.125362
-0.095796 -0.211757 0.109748
-0.002310 0.198124 0.021924
-0.214418 -0.122084 -0.419176
0.061159 0.070278 0.207094
0.070147 0.255240 -0.127816
-0.214706 -0.149097 -0.462352
-0.182852 0.131534 -0.065366
0.170560 -0.224399 0.378745
0.254483 -0.084695 0.090062
0.033437 0.197768 0.187387
0.012341 0.249755 -0.138766
0.137942 -0.252294 0.117007
-0.190688 -0.147858 0.278973
0.170610 -0.216146 0.445001
-0.158104 0.120771 -0.011841
-0.085525 -0.178470 0.024737
-0.143925 0.156933 -0.121452
-0.083951 -0.062557 0.179987
-0.075394 0.140621 0.018146
0.212920 -0.179441 0.061373
0.117066 -0.106910 0.203719
-0.125220 0.209203 0.103093
-0.154284 0.228852 -0.310503
-0.052014 -0.215350 0.163203
-0.164598 -0.111617 -0.005540
0.103229 -0.269984 -0.067984
-0.160426 0.143079 0.188876
0.249677 0.120268 0.076121
-0.057832 0.226443 0.033392
0.174131 0.216271 0.357810
-0.104850 0.074924 0.008249
-0.223258 -0.157933 0.275192
0.092979 0.265212 0.113672
0.139020 -0.254765 0.023136
-0.184752 -0.148303 0.263171
0.155611 0.252452 0.043785
0.051235 -0.279049 -0.121298
0.126487 -0.232622 0.028563
0.168435 0.252006 0.476559
0.006334 0.222212 0.029609
0.102433 -0.249892 0.059671
-0.121891 -0.122130 0.033927
0.186705 0.109354 0.040208
0.161933 0.222310 0.298025
0.135489 0.243081 0.476758
-0.267432 0.175291 0.412813
-0.210711 -0.031250 0.037649
0.161333 -0.235405 0.283023
-0.196613 -0.158013 0.242520
0.245386 -0.119367 0.086728
0.057985 -0.039785 0.207797
0.006090 -0.102889 0.195953
-0.170828 -0.190521 -0.401233
-0.067177 0.045064 0.000895
-0.142969 -0.144578 -0.163652
0.046999 -0.247870 0.159783
0.220482 0.096562 0.200335
0.198048 0.220831 0.255180
-0.217310 -0.051296 0.127434
-0.182656 0.107067 0.030915
-0.095474 0.228911 -0.129806
-0.192901 0.081975 0.141733
-0.238767 -0.156113 0.397142
-0.188569 -0.122423 0.248380
0.023730 -0.156878 0.017921
-0.219061 0.033422 0.108439
-0.032701 0.108120 0.191057
0.106585 0.274401 -0.075269
0.168853 -0.240318 0.236595
-0.191942 -0.199957 -0.382333
0.151348 -0.247041 0.062760
-0.258356 -0.104821 -0.473297
-0.245373 0.189730 0.352525
-0.122170 -0.042694 0.171239
-0.074842 0.196716 0.027134
0.142697 0.116302 0.029335
-0.038889 -0.199387 0.023983
-0.186032 -0.123304 0.175653
0.155075 -0.248223 0.466840
-0.175476 0.221637 -0.395870
0.138668 0.231735 0.023936
0.117028 0.287140 -0.090969
-0.084400 -0.212331 0.038898
-0.178422 0.139991 -0.047560
0.167840 -0.177459 0.052703
0.145359 0.134602 0.034356
0.136461 0.279128 -0.070020
-0.074064 0.155371 0.018719
-0.082314 0.124061 0.016834
-0.161710 0.018095 0.158063
-0.191066 0.198498 -0.397314
0.165491 -0.097280 0.205587
-0.174951 0.156362 -0.155057
-0.058461 0.136696 0.180611
-0.190127 -0.029839 -0.171007
-0.220540 -0.134209 -0.408886
0.181389 -0.250782 0.198728
0.162080 -0.244895 0.065568
-0.056089 0.103355 0.007614
0.218747 -0.191800 0.154754
-0.188437 0.154196 0.279108
-0.219874 -0.112231 -0.441160
-0.176755 0.084505 -0.166733
-0.150879 0.175964 -0.154266
0.260320 0.049460 0.149601
0.061839 -0.279307 -0.114773
0.110132 -0.257319 -0.111942
-0.206927 0.026406 0.028261
0.034412 -0.042361 0.001321
0.198349 0.216555 0.228492
0.111588 0.260330 -0.028494
0.124536 0.267296 -0.132106
0.208519 -0.246719 0.188305
-0.245383 0.191586 0.420024
-0.064972 -0.113695 0.179644
0.180625 0.260012 0.162939
-0.052209 0.074967 0.188321
0.182600 -0.256511 0.116779
0.263792 -0.056929 0.113052
-0.146562 -0.010383 0.007177
0.023209 0.023931 0.204702
0.028799 0.127702 0.197507
0.104910 -0.258924 -0.041149
0.015843 0.057303 0.001260
-0.204129 -0.089347 0.112544
0.062768 -0.097031 0.202789
-0.237474 0.189757 0.390594
0.117766 -0.252675 -0.004658
-0.153133 -0.186842 -0.325081
0.171568 0.099896 0.205812
-0.195400 -0.114516 0.124273
0.066814 -0.248899 0.135472
0.239346 0.205493 0.102319
0.240122 0.202807 0.096876
-0.260211 0.014325 -0.440751
0.140681 0.227606 0.362783
-0.130266 0.205612 0.099450
-0.133212 0.203816 0.117469
-0.144444 -0.200279 -0.306839
-0.036713 -0.043965 0.193442
0.004235 -0.208079 0.176294
0.067086 0.286065 -0.117757
0.252865 -0.048703 0.191315
0.019222 -0.192797 0.181331
-0.002031 0.141944 0.011452
0.177915 -0.055809 0.211541
-0.111142 0.202417 -0.140014
0.173904 0.247731 0.067707
0.005207 0.095182 0.005206
-0.156097 -0.171174 0.071414
0.142327 0.244572 0.364104
-0.018021 -0.053746 0.001798
-0.026829 -0.241415 0.065478
0.011603 -0.239165 -0.114507
0.103192 -0.174237 0.189945
0.169587 0.221342 0.381409
-0.158102 -0.162607 0.043375
0.230968 -0.110579 0.062455
0.065238 -0.126656 0.198630
-0.023644 -0.135776 0.184958
-0.176595 0.144784 -0.095732
0.141096 0.211329 0.415467
-0.070276 -0.178513 0.168009
0.190962 -0.165044 0.189811
-0.152765 0.195981 -0.182673
0.134980 -0.157484 0.039750
0.152064 -0.093373 0.206497
-0.048080 0.107191 0.187394
0.006387 -0.238822 -0.132033
0.042183 0.281291 -0.117777
-0.167655 0.108422 -0.167979
0.109502 -0.260986 -0.024230
0.162213 0.216559 0.068492
-0.207997 -0.156597 0.318125
0.151630 -0.077822 0.028845
0.135848 -0.257906 -0.070733
-0.167912 -0.139771 0.000866
-0.149006 0.132407 0.014749
-0.211782 -0.002379 -0.179754
-0.054383 0.089844 0.186601
0.000831 -0.241565 -0.139624
-0.137074 -0.184886 0.054530
0.081828 -0.196497 0.038667
0.226548 -0.249899 0.097874
0.170588 0.224146 0.042635
0.042034 0.208686 0.029884
-0.049699 -0.232297 0.076304
0.187289 0.263393 0.131979
-0.192915 0.107788 0.140129
0.205729 -0.258540 0.106033
-0.184203 0.151697 0.115098
-0.213427 -0.051508 0.104442
0.031070 -0.272135 -0.114032
0.235744 -0.039205 0.054245
0.183200 -0.080114 0.036882
0.157087 0.212436 0.422874
-0.097175 -0.063768 0.007632
0.102728 -0.286952 -0.128666
-0.194786 0.071793 -0.158822
-0.188443 -0.084361 -0.195683
-0.168654 -0.065734 0.151748
0.135871 -0.220869 0.433944
-0.063107 0.230568 0.161764
0.175587 -0.253636 0.131802
-0.174868 -0.166025 -0.218928
0.207731 0.194765 0.187589
-0.059185 -0.067657 0.185566
-0.236917 0.144163 -0.464265
-0.009077 0.054427 0.000101
0.112004 0.135212 0.201472
-0.186160 -0.102711 0.142203
0.220669 0.208379 0.065423
-0.164400 -0.216858 -0.312621
-0.192057 0.131098 0.106344
-0.168894 -0.148108 -0.139492
-0.273339 0.009380 -0.493446
0.255406 -0.084701 0.103746
-0.165440 0.163851 -0.118448
0.153273 0.240011 -0.015911
-0.225948 0.096154 -0.435690
-0.150810 0.150488 -0.201650
0.186291 -0.209144 0.320581
0.173694 0.257976 0.227452
-0.136584 -0.043549 0.010674
-0.239470 -0.140335 -0.437811
0.024663 0.245778 0.040376
0.056815 0.143751 0.016999
0.214518 0.162720 0.186408
-0.142619 0.228847 -0.286724
0.193254 -0.001604 0.034088
-0.211713 -0.160681 0.263276
-0.057266 -0.247193 -0.124721
-0.184125 -0.090218 -0.194890
-0.210047 0.019478 0.031266
-0.019555 -0.244047 0.052744
0.086415 0.286791 -0.109985
-0.103040 -0.107092 0.018931
-0.131321 0.155663 0.019529
0.022074 -0.245204 -0.109661
-0.041997 -0.150671 0.179436
-0.014460 -0.226186 0.035835
0.153312 0.240924 0.321411
-0.166318 -0.184937 -0.231499
-0.177625 -0.174523 -0.256234
-0.134679 0.127978 0.158904
-0.043612 0.115841 0.008290
0.050495 -0.006778 0.207913
-0.160604 0.116266 -0.034667
0.168094 0.250635 0.064672
-0.045607 -0.233615 0.147382
0.203227 0.200433 0.192119
-0.176155 0.124422 0.144592
0.187234 0.245313 0.337867
0.177241 -0.253653 0.244762
0.022899 0.060629 0.204559
-0.172966 0.035090 0.012472
0.101756 0.127256 0.202493
0.162005 0.229697 0.292977
-0.258445 -0.150652 0.388144
-0.246882 0.172217 0.428139
-0.140814 0.212609 -0.243772
0.141245 -0.250329 0.098573
0.242909 0.083735 0.194852
0.182000 -0.252648 0.214185
-0.065438 0.118406 0.012287
-0.013103 -0.236959 0.042573
-0.156962 0.189479 -0.349678
-0.176597 -0.211013 -0.345048
-0.004016 0.267618 -0.115093
-0.213054 -0.144008 -0.402779
0.132953 0.039954 0.212641
0.033969 0.187360 0.189727
0.036619 0.249709 -0.128648
-0.185657 0.155226 0.138379
-0.076019 -0.009171 0.000494
0.222004 0.205126 0.151720
-0.243406 -0.144546 0.353491
-0.224969 0.105139 -0.477568
0.199069 0.036841 0.037163
0.167686 0.258720 0.192113
-0.150101 -0.051128 0.162282
-0.077485 -0.220207 0.110169
0.137903 -0.161375 0.193095
-0.163932 -0.204660 -0.273721
-0.019930 -0.177319 0.178088
0.165329 0.235028 0.427546
0.076966 -0.281634 -0.133175
0.032306 -0.193884 0.026400
-0.218032 0.013314 0.082481
0.085473 0.099523 0.015333
0.147595 0.154124 0.198268
0.001999 -0.068564 0.198579
-0.186593 0.140369 0.101414
0.243804 0.048396 0.058206
-0.261556 -0.077777 -0.456741
-0.209776 -0.134522 -0.447485
0.260582 -0.062882 0.108709
-0.191532 0.142100 0.261886
0.115085 0.205685 0.050420
0.099735 0.184229 0.193753
-0.012192 0.068592 0.197519
0.094696 -0.257571 -0.129049
-0.023273 -0.171116 0.017041
-0.060416 0.094375 0.006815
-0.170813 -0.177045 -0.363894
-0.169386 -0.187504 -0.393633
-0.137657 0.139921 0.014012
0.171661 -0.226232 0.445009
0.192502 -0.208716 0.223409
-0.061634 -0.238175 -0.115363
0.115595 0.186680 0.040325
0.127981 0.257496 0.172792
-0.113877 0.197460 0.158576
-0.067477 0.178742 0.171997
0.182021 0.260217 0.154222
0.067010 -0.262723 -0.139410
-0.190814 0.051639 -0.190232
0.139871 -0.225271 0.012686
-0.126681 0.174574 0.038635
0.253323 -0.035094 0.201822
-0.162267 -0.189943 -0.227304
0.108799 0.164123 0.197135
0.213940 0.257239 0.188472
0.231005 0.081936 0.054410
0.211864 -0.222623 0.209265
-0.002015 -0.247367 0.067007
0.164562 0.221756 0.051987
0.174074 0.135476 0.200319
-0.234847 -0.123910 -0.478775
-0.099710 -0.200024 -0.162375
-0.206607 -0.130620 0.239538
-0.250445 0.104800 -0.457435
0.086630 0.149958 0.198623
0.204351 0.181079 0.187250
0.219425 -0.145903 0.188133
0.236746 -0.134944 0.143754
0.124628 -0.247623 0.009016
-0.184466 -0.015135 0.013514
0.211154 0.034950 0.210111
-0.225957 -0.161361 -0.421792
-0.164327 0.158715 -0.055259
0.145512 0.261761 0.123408
-0.003415 0.176671 0.016424
0.155808 -0.288101 -0.072426
-0.209994 0.076056 0.093387
-0.230950 0.158675 0.338363
0.214564 -0.195099 0.064195
-0.181408 0.140979 0.048794
-0.192963 0.160529 -0.444940
0.138841 0.251421 0.481497
-0.136241 0.020464 0.004708
0.191266 0.243749 0.329460
0.140189 -0.246523 -0.038717
0.176546 -0.208423 0.220188
0.254572 -0.087420 0.115859
-0.177163 -0.029985 0.013038
-0.235349 -0.051968 -0.442996
0.220321 0.079221 0.203783
0.030754 -0.212433 0.033001
-0.254702 0.007584 -0.438118
-0.180737 -0.121697 0.160950
0.238749 0.202343 0.079899
0.210861 0.263474 0.097310
0.139840 0.246881 -0.041713
0.139828 -0.291962 -0.120525
0.185107 0.236513 0.069951
0.174377 -0.002771 0.212498
-0.197737 0.193526 -0.411805
0.041104 -0.247417 0.154160
0.207352 -0.212879 0.240718
-0.175934 -0.137966 -0.143867
0.101413 -0.225328 0.176703
0.235344 0.141890 0.147391
-0.212150 0.004821 -0.181578
-0.145932 -0.152120 0.034390
0.190708 -0.152473 0.050548
-0.139120 0.159680 -0.145402
0.135216 -0.211375 0.406757
0.153695 0.260556 0.456082
-0.067276 -0.227085 0.151606
0.047222 0.222843 0.180519
-0.139653 -0.080539 0.023024
-0.083053 -0.125080 0.015621
0.186946 -0.225392 0.331655
-0.094269 -0.171822 0.163047
-0.155780 0.222073 -0.399886
0.186306 0.272075 -0.083446
-0.192719 0.050360 0.020681
-0.168020 0.157891 -0.096703
0.187644 0.094085 0.205026
0.099743 0.050850 0.011217
-0.072813 0.088778 0.006808
-0.189727 -0.132936 0.271384
0.034720 -0.115596 0.197960
-0.043079 0.029572 -0.001287
-0.166703 0.182761 -0.214324
-0.096284 -0.040370 0.002729
0.057481 -0.249685 -0.125099
-0.168356 -0.141571 0.016340
0.203342 0.229278 0.065999
0.151737 -0.158180 0.193673
0.104684 -0.272680 -0.055994
0.168962 -0.209624 0.385386
0.154443 -0.225898 0.312261
0.133040 0.292160 -0.104799
-0.274002 0.183007 0.435636
-0.174211 -0.107548 -0.042566
0.044876 0.093674 0.008071
-0.141170 0.135052 -0.040001
-0.064507 0.125256 0.012388
-0.223112 -0.108063 -0.445495
0.133473 -0.291762 -0.118183
-0.163802 0.151277 -0.216537
-0.191878 0.152360 0.283826
-0.268275 0.047563 -0.481527
0.170155 0.270214 -0.067800
0.200367 0.151523 0.192849
-0.114989 0.167018 0.161171
-0.083223 -0.141637 0.171102
0.185153 0.277227 -0.079940
-0.137499 0.195963 -0.293068
-0.042955 0.232046 -0.142926
0.213512 -0.228006 0.181278
0.173678 -0.223025 0.028157
-0.039920 -0.235462 0.155255
0.216685 0.255239 0.177670
0.141550 0.050209 0.021373
-0.188480 0.032261 0.146624
-0.220155 0.003930 0.109579
-0.035236 -0.257376 -0.136047
-0.179896 0.149069 0.257249
0.217625 0.221512 0.178377
-0.103240 -0.029855 0.002864
0.138471 0.106795 0.026757
-0.169980 -0.150410 -0.151327
0.068167 -0.250341 0.122334
-0.144240 0.138609 -0.125292
-0.160892 0.194296 -0.392198
0.090874 0.218223 0.045703
0.258465 -0.076270 0.118872
0.129404 0.262925 0.116300
0.076044 -0.080471 0.011569
0.054942 -0.083548 0.203930
0.191891 0.030200 0.211267
0.159214 -0.199332 0.396502
0.253449 -0.054574 0.072071
-0.157450 -0.119363 -0.168154
-0.216589 0.171873 0.344038
-0.187500 0.168433 0.268258
0.136381 0.077382 0.210284
-0.232130 0.084275 -0.483086
-0.193224 -0.097036 0.138131
0.231088 -0.081497 0.202020
0.157276 -0.238091 0.343990
-0.193609 0.123624 0.059423
-0.206862 0.139953 -0.460037
-0.131196 0.219342 -0.306361
-0.150484 0.220912 -0.264533
0.069080 0.240571 0.175721
0.182172 -0.193186 0.058234
0.030101 0.160978 0.016686
-0.187202 0.083736 -0.193011
-0.246043 0.124873 -0.484714
0.150242 0.254863 0.491176
0.155403 -0.217719 0.309822
0.036014 -0.244567 -0.118637
-0.221329 -0.154548 0.349745
-0.144026 -0.185433 -0.281393
0.120822 0.258917 -0.107093
-0.095418 0.078109 0.175989
0.035605 -0.245297 -0.127540
0.222299 -0.179394 0.066826
0.210550 -0.243411 0.252741
0.155752 -0.137992 0.039171
-0.037466 0.235906 0.165890
0.068632 0.083581 0.010300
-0.179742 -0.116101 0.032636
-0.168637 -0.137351 -0.008431
-0.089862 -0.161871 0.021944
-0.051219 -0.128631 0.181599
-0.174003 0.225004 -0.404737
-0.166985 -0.186525 -0.238745
0.141239 0.043061 0.212691
-0.175111 -0.126674 -0.094747
-0.048347 0.224556 0.166056
0.013329 0.271390 -0.112904
0.120351 -0.244412 -0.053321
0.187773 -0.067353 0.208498
0.094140 -0.098753 0.016884
0.143266 0.289879 -0.094334
-0.060008 -0.199176 0.025477
-0.188079 -0.195159 -0.350822
-0.198222 0.035792 -0.168418
0.226866 -0.202788 0.125762
-0.127769 -0.174718 0.153325
0.107356 -0.253232 -0.075481
0.110377 0.252901 -0.034778
-0.169978 0.195927 -0.295573
0.179853 -0.070519 0.208899
0.037807 0.068638 0.003900
0.107420 -0.075160 0.210024
-0.011999 -0.020120 -0.001590
-0.020538 0.082020 0.195014
-0.179954 0.122506 -0.161678
-0.227730 -0.159772 0.286259
-0.031733 -0.237120 0.109225
-0.225572 -0.136645 0.307261
0.015769 0.260523 0.099875
0.051548 -0.015748 0.001415
-0.123795 0.158517 0.042076
0.077581 0.064954 0.208595
0.106544 -0.179503 0.039203
-0.192610 0.005789 0.145540
0.257318 0.098957 0.109589
0.027434 -0.166148 0.187896
-0.219002 0.172476 -0.448883
-0.145387 -0.182281 0.135594
-0.145337 -0.176548 0.044236
-0.120346 -0.209376 -0.166941
-0.090170 0.110282 0.174183
-0.169295 -0.155595 0.103003
0.110172 0.192656 0.192089
0.116754 -0.195744 0.051676
0.103641 -0.252643 -0.053484
0.161747 0.218931 0.306375
-0.044974 0.199099 0.174248
0.149991 -0.237557 -0.016791
0.196629 -0.143041 0.050402
0.166530 -0.202529 0.340330
-0.028462 0.144330 0.011887
-0.186161 0.066662 0.019525
-0.088134 0.161008 0.024733
0.084370 -0.255131 0.112924
0.172964 0.264866 0.275699
0.145708 -0.081095 0.209094
-0.028376 -0.215423 0.168154
0.173304 0.221098 0.218077
0.027275 0.149758 0.194075
-0.035343 0.087545 0.191444
0.066064 0.266987 0.073510
-0.166796 -0.173072 -0.304326
-0.170927 -0.105223 -0.135267
-0.268845 -0.153915 0.426835
-0.187110 -0.137016 0.135246
-0.205891 0.172828 0.244503
0.128902 0.194409 0.192091
-0.119817 -0.087589 0.020130
-0.118604 -0.168246 0.030908
-0.246210 0.166460 0.401992
-0.179267 0.089025 0.024400
-0.076595 0.186844 0.025140
-0.175455 0.131033 -0.017212
0.039412 0.139974 0.014271
0.187856 -0.096445 0.204373
-0.193203 0.164037 0.192505
-0.211786 -0.128222 -0.415895
0.142328 0.212283 0.064260
0.141406 -0.269791 -0.070061
0.158903 -0.222061 0.024793
0.235036 0.052955 0.052238
0.005897 -0.190659 0.179816
-0.043987 -0.185873 0.172298
0.251944 0.131698 0.091879
0.181326 -0.025412 0.212238
-0.130094 0.204195 -0.252406
-0.213018 0.060352 0.134549
0.201813 -0.132015 0.194337
-0.132872 -0.010048 0.168195
-0.092487 0.102487 0.174213
-0.033220 0.251668 0.097356
0.085941 0.245254 0.051553
-0.140348 -0.166461 -0.208194
-0.102656 -0.222773 -0.132184
0.180624 -0.082312 0.207230
-0.149809 -0.206866 -0.335394
0.100606 -0.194232 0.185223
-0.252507 -0.177403 0.379835
-0.181667 -0.187562 -0.305256
0.145995 -0.107650 0.203909
-0.187017 -0.023566 0.148405
-0.171381 0.153344 -0.213760
0.180736 0.222122 0.346946
-0.214151 0.023274 0.057838
0.001646 0.170374 0.015930
0.086986 0.005052 0.005825
0.119635 -0.147962 0.033722
0.163692 0.224977 0.045168
0.095083 -0.158233 0.193389
0.223675 0.237869 0.151573
0.208662 -0.174902 0.186284
-0.185073 0.136723 0.208183
0.146256 0.251882 0.049581
0.172515 -0.224292 0.372618
-0.175534 0.167458 -0.205626
0.244062 -0.110289 0.146020
-0.131844 0.215165 -0.174481
0.233756 0.184592 0.129302
0.010998 -0.076886 0.199989
0.093935 0.176161 0.031069
0.001265 -0.246897 0.084296
0.045136 -0.170525 0.189215
-0.104346 -0.185762 0.029888
0.110660 -0.113130 0.202431
-0.176530 -0.179097 -0.296314
-0.063563 -0.143368 0.176885
0.134851 0.242459 0.032723
-0.024803 0.065461 0.001960
0.127620 -0.022504 0.213575
0.130430 -0.124793 0.200504
-0.139999 0.040768 0.165869
0.152452 -0.220552 0.189665
0.272837 -0.012102 0.106652
-0.087965 -0.215820 0.055304
-0.171955 -0.147346 0.073444
0.094869 0.009643 0.007382
-0.050561 0.214962 0.028293
0.177210 0.001185 0.028795
-0.014297 0.158507 0.186163
-0.219725 -0.135513 0.279382
0.208769 0.211837 0.202152
0.147326 0.211222 0.360223
0.240743 -0.086274 0.199868
-0.222053 -0.097876 -0.438873
0.098208 0.057745 0.210263
0.129753 0.256289 0.008577
-0.142471 -0.028028 0.007234
0.010041 0.153840 0.190845
0.218703 -0.056041 0.048004
0.029845 -0.111260 0.009838
-0.216107 0.118311 -0.459496
-0.004185 -0.245106 0.053325
-0.222257 -0.021542 0.129337
0.064918 0.190126 0.028759
0.185117 -0.233096 0.334986
0.191369 -0.027108 0.033707
0.181136 0.054474 0.212259
-0.036857 0.251059 0.087472
-0.009978 0.229040 0.032327
-0.059954 -0.185167 0.021937
0.008250 -0.244358 0.158019
-0.088549 0.222132 -0.163973
-0.173611 -0.127351 -0.037970
0.246204 -0.125532 0.110131
0.114970 0.258888 -0.111068
-0.065214 0.127303 0.180154
0.001246 -0.104340 0.006800
0.241535 -0.089881 0.190343
0.187607 0.000988 0.031775
-0.224532 -0.155919 -0.409717
-0.009773 -0.006546 0.200150
0.198497 -0.097712 0.202973
0.207547 0.260672 0.149282
-0.168880 0.190919 -0.256413
-0.022492 0.251321 0.131158
-0.084825 0.105829 0.176211
-0.207419 0.016365 -0.171728
-0.178200 0.103404 -0.154581
0.219996 0.116092 0.052981
-0.122796 0.039630 0.171542
-0.198686 -0.039392 0.020865
-0.141923 0.167231 0.154358
0.065376 0.256094 -0.110548
0.172027 -0.247250 0.008681
0.084384 0.012529 0.005381
0.205440 0.239056 0.286308
-0.170183 0.131048 0.178450
0.016415 0.206518 0.024365
0.229355 -0.160124 0.141293
-0.216342 0.015997 -0.204475
-0.243022 -0.101523 -0.485573
0.016657 -0.250334 0.060866
-0.125812 -0.170370 0.033567
0.239906 -0.149372 0.097735
-0.265591 0.022604 -0.449879
-0.106767 -0.152800 0.162368
-0.136980 0.179986 -0.240352
0.200083 -0.251372 0.279072
-0.193290 0.167896 0.201984
0.032698 -0.199148 0.181280
0.189608 0.009769 0.033379
0.045809 0.258450 0.166887
0.093639 -0.109238 0.018921
0.101866 0.139343 0.023157
0.014494 0.269763 -0.139616
0.157493 -0.214168 0.496040
0.033834 -0.168581 0.188264
0.076590 -0.008703 0.210795
-0.227012 0.178464 0.369974
0.217304 -0.205108 0.152940
0.118382 0.191684 0.192478
0.001409 -0.115494 0.192826
-0.181584 0.132988 0.141496
0.147303 -0.009180 0.021789
0.134043 -0.128793 0.032780
0.245947 0.092568 0.164041
0.264158 -0.050516 0.103223
-0.157757 0.113394 -0.058495
-0.239554 0.028711 -0.471323
0.098037 0.101119 0.206894
0.179856 -0.095365 0.038654
0.061325 -0.258559 -0.138752
0.209899 -0.005666 0.210763
0.165004 -0.147372 0.195479
0.153674 0.078659 0.027315
0.139812 -0.222569 0.027833
-0.126612 0.044098 0.005913
0.200358 0.187250 0.056233
0.168592 0.003537 0.212515
0.225626 0.036764 0.045838
0.138819 0.252236 0.466484
-0.237388 -0.155070 -0.461896
-0.180369 -0.120847 0.232606
0.011488 0.041811 -0.000186
-0.190610 0.144504 0.164429
-0.141810 0.145457 -0.124796
-0.205439 0.074330 0.039007
0.182398 -0.257169 0.075473
-0.156392 0.124206 -0.132799
-0.216166 0.113266 -0.446502
0.157192 0.042290 0.212682
-0.147139 0.176747 0.039577
0.189632 -0.211352 0.245300
0.166833 -0.024381 0.212752
0.030718 -0.245719 0.048781
0.266296 -0.012382 0.152790
-0.151165 -0.162487 -0.158030
0.143352 0.217652 0.445995
0.115789 0.285437 -0.083119
0.151516 -0.199361 0.404380
0.198729 -0.083988 0.043068
0.081437 -0.249415 0.139377
-0.003924 0.067352 0.001199
-0.158029 0.158904 -0.034894
-0.007058 -0.016344 0.200197
0.226521 0.184445 0.141108
-0.161094 0.191218 -0.297534
0.181518 -0.120792 0.042015
0.038955 -0.130934 0.015492
0.014254 0.276527 -0.125714
-0.238088 0.167416 0.314730
-0.029967 0.252671 0.090629
0.015425 -0.104725 0.197311
0.060987 -0.248598 0.133200
0.240001 0.206916 0.085176
-0.173902 0.191373 -0.363884
0.156896 0.229377 0.029013
-0.183843 -0.128780 -0.167573
0.070711 0.216386 0.183138
-0.019988 -0.262259 -0.132077
-0.241692 -0.157107 0.315574
-0.082622 -0.088717 0.176579
-0.098225 -0.211791 0.122674
-0.033422 -0.233147 0.042889
0.270959 0.020482 0.131294
-0.208509 -0.136479 -0.409265
-0.094620 0.095975 0.174210
-0.075937 -0.223940 0.089996
-0.039037 0.096015 0.190265
-0.191480 -0.098681 -0.193551
0.144588 0.247804 0.055540
0.122366 0.142284 0.200478
-0.031308 0.133572 0.187051
-0.132931 0.205266 -0.299416
-0.180750 -0.112681 -0.101914
0.173219 -0.255456 0.116225
0.098006 -0.079794 0.208629
-0.256342 0.027359 -0.439474
0.258524 0.053707 0.070953
-0.027839 0.219671 0.172653
-0.226606 -0.138641 0.295419
0.209986 -0.226666 0.067840
0.065728 -0.147068 0.195136
0.060142 -0.264420 -0.140195
0.160582 0.152039 0.040282
-0.115949 0.019930 0.002891
0.144197 -0.168699 0.191831
-0.137079 0.208592 -0.170920
-0.162717 0.159900 -0.082036
0.101169 0.265525 0.107228
-0.014214 0.191116 0.181527
-0.184525 -0.121151 0.058093
-0.053768 0.257537 -0.141351
-0.198301 0.079263 0.139835
-0.215849 -0.017585 0.072878
-0.155470 -0.103856 0.035200
0.138200 -0.215944 0.455195
0.035373 -0.125037 0.014021
-0.215139 0.043812 0.088653
0.029714 0.014102 0.205540
0.152673 0.233979 0.189537
-0.070027 0.130014 0.013444
-0.204859 -0.067674 0.047606
-0.068129 -0.089143 0.006762
-0.156185 0.184797 0.079802
-0.054552 -0.219801 -0.142805
-0.135542 -0.198422 -0.189168
0.005766 -0.123650 0.191987
0.113201 -0.129418 0.199423
-0.218231 0.023709 0.098550
-0.161621 -0.143801 0.159522
-0.003146 0.218818 0.177360
0.253002 0.088593 0.143207
-0.171284 -0.206039 -0.308806
-0.166945 0.172234 0.088690
-0.137748 0.220571 -0.269056
-0.072674 -0.224145 0.138397
-0.257098 0.066662 -0.444782
-0.164627 0.200681 -0.267614
0.097894 -0.287149 -0.124492
0.016335 -0.245063 0.143099
-0.075373 0.005675 -0.000050
0.041567 -0.210011 0.034033
-0.192382 -0.091693 -0.170235
-0.241867 -0.153531 0.402419
0.172584 0.259945 0.012803
-0.039651 -0.010463 -0.001279
0.117535 0.291840 -0.122666
-0.006363 0.091973 0.196996
-0.003248 -0.132872 0.188766
-0.085038 -0.214128 -0.123109
0.014855 0.260823 0.093623
0.110279 0.281079 -0.073580
0.145419 0.213792 0.190383
-0.272436 0.182336 0.426296
-0.153701 0.230240 -0.382745
-0.164734 0.162127 0.183890
-0.207174 0.163149 0.230491
0.014606 -0.092031 0.006358
-0.005830 -0.217842 0.032100
-0.050956 0.243835 0.148240
-0.237709 0.181598 0.404236
-0.193726 -0.128418 0.183309
-0.266734 0.062657 -0.492837
-0.184102 -0.175103 -0.362139
-0.159593 -0.151632 -0.000507
-0.162978 -0.083922 0.151194
-0.232665 -0.074375 -0.452873
0.231768 -0.154040 0.139626
-0.189697 -0.111002 0.046359
0.049925 0.045329 0.003840
0.031019 0.247992 -0.122120
0.171024 0.246422 0.366701
-0.159891 -0.196500 -0.371210
-0.196316 -0.130974 0.279198
0.046506 0.265710 0.075139
-0.176744 0.210717 -0.364630
-0.200415 -0.069021 -0.173005
0.019731 -0.250604 0.074333
-0.191640 0.161863 -0.429564
-0.083986 -0.236901 -0.138540
0.175753 0.288283 -0.069030
-0.241640 0.013717 -0.481034
-0.243119 0.183439 0.426970
-0.005500 -0.241544 0.120755
-0.188034 0.139269 0.138099
-0.044618 -0.049365 0.191015
-0.103846 0.224378 0.054800
0.058257 0.224298 0.037984
0.202863 -0.049842 0.040118
0.199249 0.263310 0.128194
-0.152121 0.153190 -0.074358
-0.168530 0.137632 0.206915
0.222348 0.173183 0.169967
-0.134766 -0.197797 -0.146552
0.272694 -0.006261 0.097413
0.146604 -0.121172 0.034329
-0.177333 0.098261 0.027380
0.159899 0.245457 0.389155
-0.031584 0.169271 0.016281
-0.173595 0.204547 -0.329695
0.205947 -0.086024 0.203990
0.202783 -0.252088 0.270630
-0.250684 0.195090 0.390794
-0.051834 0.243545 0.156287
-0.119701 -0.178864 -0.156965
-0.193601 -0.157028 0.236163
0.135687 0.244661 0.451439
-0.251028 0.094251 -0.444882
-0.087490 0.226864 0.042294
0.067984 0.259439 0.156657
0.230208 0.208990 0.128721
-0.065440 -0.114834 0.009177
0.119331 -0.157006 0.035039
0.264030 -0.037902 0.150915
0.122562 -0.063505 0.019448
-0.175122 -0.080801 -0.162653
-0.100769 0.132659 0.024260
-0.077319 -0.090988 0.008544
0.045857 -0.252397 0.061313
0.189084 0.219949 0.261777
-0.264340 -0.022028 -0.496729
0.211438 0.083410 0.203682
-0.170488 -0.131713 -0.051447
-0.179308 0.128380 -0.040307
0.200141 -0.185984 0.192088
-0.271103 -0.037801 -0.478788
-0.142512 0.141400 -0.095026
0.194031 -0.192725 0.197304
0.159023 -0.220196 0.295383
-0.168671 -0.219653 -0.340216
-0.211208 0.045046 -0.194344
0.142648 0.057012 0.212928
-0.016155 0.250563 0.164735
-0.049284 0.247308 0.064981
0.042019 0.256928 0.048390
-0.172636 -0.220195 -0.377183
0.171179 -0.201637 0.354171
-0.179484 0.159945 0.117501
-0.058349 0.244196 0.044872
0.143583 -0.238249 0.486088
0.160857 0.251786 0.061782
0.033828 0.194277 0.024547
0.235743 0.087136 0.057069
0.174753 0.228802 0.029504
-0.040566 0.230147 -0.135069
-0.247256 -0.151895 0.415738
-0.020603 0.186722 0.018620
-0.219557 -0.002515 0.106804
-0.230580 -0.171194 0.323688
0.241381 0.099910 0.175335
0.070129 0.209077 0.036618
0.237658 -0.146765 0.079994
0.165862 0.260132 0.149741
-0.148289 0.119509 -0.033751
-0.192311 -0.025030 0.017693
0.118067 0.238630 0.060695
-0.210132 0.054857 0.045326
0.242239 0.067166 0.059159
-0.060053 -0.240110 -0.149958
0.102826 0.235094 0.054549
0.164151 0.237345 0.484492
-0.228768 -0.169963 -0.449886
-0.134834 0.168948 -0.166092
-0.222756 -0.142669 0.336833
0.214124 -0.216949 0.175322
-0.139198 0.199100 0.059552
0.140013 0.012538 0.019795
-0.214365 -0.037219 0.082188
-0.211641 -0.130190 0.274452
-0.035867 -0.225726 -0.135526
0.113776 0.203486 0.188956
-0.038324 0.207487 0.025988
0.258172 0.035553 0.169272
0.197425 -0.236209 0.301204
-0.205163 -0.127092 0.260353
0.163525 -0.242044 0.329909
-0.168765 -0.182761 -0.381595
-0.029910 0.249774 0.128732
-0.121749 0.116527 0.163685
0.209633 -0.118878 0.196848
-0.264615 -0.164275 0.443237
0.171212 0.261936 0.301033
0.090339 -0.081956 0.207407
0.085894 -0.255269 0.068257
-0.046734 -0.233081 0.085744
0.135696 0.240255 0.394732
0.134159 0.223136 0.397775
0.248234 0.148756 0.091133
-0.203970 -0.126790 0.269423
-0.029635 0.007573 0.197625
-0.209469 -0.140359 0.313642
0.160159 0.108925 0.205277
-0.188480 -0.124540 0.254675
-0.079348 -0.120807 0.174143
0.251923 -0.085006 0.149177
-0.178248 0.159905 0.255248
0.248388 -0.101840 0.137997
0.203000 -0.245846 0.071492
-0.256635 -0.165761 0.360621
-0.020165 -0.129450 0.010139
0.051878 0.037495 0.002688
-0.107254 0.200837 -0.162089
0.211676 0.233744 0.247092
-0.172256 -0.137688 -0.216221
-0.259117 0.074286 -0.459188
0.179374 -0.177151 0.053069
-0.208186 -0.074610 0.107112
-0.249043 -0.067544 -0.431847
0.022156 0.263135 -0.108102
0.244011 -0.076929 0.067763
0.249231 0.005013 0.206672
-0.179483 -0.099121 0.144607
-0.176381 -0.152192 -0.187398
-0.156367 -0.168456 0.062037
-0.092372 0.095413 0.010547
0.220505 -0.163272 0.181300
-0.269175 -0.032667 -0.466522
0.134104 0.231051 0.037807
0.227301 0.123860 0.057503
0.119666 -0.237865 0.053867
0.174277 0.292994 -0.102062
-0.203565 -0.084989 0.097713
-0.059988 -0.134593 0.179005
-0.162129 0.012719 0.007809
0.251324 -0.102740 0.116567
0.250134 -0.100845 0.086497
-0.153666 -0.043522 0.161774
-0.194473 -0.108205 0.063179
-0.194560 0.172423 0.281454
-0.037419 -0.235677 0.143245
-0.048366 -0.227682 0.160755
-0.173867 -0.129553 0.026985
-0.139363 0.190561 0.043800
0.116046 0.272283 -0.036434
-0.182677 -0.214336 -0.398913
-0.168328 -0.174766 -0.213261
0.236145 0.248577 0.112994
0.081908 -0.167293 0.191080
0.015974 -0.069196 0.200950
-0.149124 0.210140 -0.385443
0.191297 -0.078985 0.038821
-0.208444 0.071086 0.047019
-0.187196 0.142930 0.153433
0.038230 0.111726 0.010301
0.163286 -0.076393 0.031676
-0.157306 0.135704 0.159923
0.176614 -0.266808 -0.102885
-0.173057 0.210198 -0.342982
0.154672 -0.199536 0.367169
0.104843 0.270325 -0.105198
0.150778 0.197672 0.191967
0.126610 0.260629 -0.122138
0.165630 -0.208790 0.420341
0.172768 0.254947 0.220513
-0.130535 0.200453 -0.240446
-0.218839 0.054494 0.124449
-0.170320 -0.146527 0.056884
0.135278 -0.208153 0.414126
0.148887 0.248159 0.359770
-0.019359 0.094676 0.194698
-0.154923 0.175019 -0.256888
-0.056296 0.146114 0.014105
0.229858 -0.197066 0.114755
0.156439 0.263227 0.090348
-0.037158 0.234890 0.035788
-0.162155 0.173512 0.056382
-0.159214 0.228853 -0.335938
0.191264 -0.253461 0.127678
-0.133363 -0.165491 0.152655
-0.116797 -0.122067 0.161785
0.167670 0.198712 0.060760
0.251173 -0.001017 0.060773
-0.173539 0.168220 0.118366
0.072130 0.193343 0.189811
-0.175690 0.131937 -0.122122
0.104913 0.204857 0.188011
0.061708 -0.031872 0.003814
-0.123616 0.012076 0.170963
-0.145416 -0.111570 -0.010175
0.032033 -0.139359 0.193261
0.024216 -0.094724 0.007996
-0.102579 0.223608 0.112947
0.099692 0.133662 0.021623
-0.168815 0.155227 -0.073044
0.056026 -0.017197 0.208362
-0.101451 0.086781 0.011632
0.130902 -0.217470 0.182578
-0.145379 0.146315 -0.063333
0.069816 -0.276675 -0.107960
0.221400 0.128845 0.193688
-0.241180 0.095653 -0.492405
-0.219687 -0.166648 -0.409638
-0.187029 -0.108515 -0.177280
-0.054270 0.100329 0.186010
0.136013 -0.227092 0.435558
-0.154885 -0.215286 -0.301769
0.187622 0.217785 0.218458
0.197545 -0.147703 0.191661
0.199302 -0.068229 0.041304
-0.037545 0.103768 0.190526
0.148846 -0.237478 0.436001
0.039574 0.099997 0.007482
-0.081817 0.074601 0.180493
-0.270901 0.021130 -0.478428
0.129688 0.224052 0.185051
0.197851 -0.162295 0.053870
-0.167804 -0.026222 0.156504
-0.244019 0.117312 -0.446227
0.097704 0.259046 -0.128081
0.219304 -0.007732 0.042510
-0.154567 -0.188248 -0.334956
-0.111520 0.174926 0.161581
0.060401 -0.180082 0.187293
-0.133249 0.066688 0.012327
0.162840 0.259029 0.034989
-0.190232 -0.075418 -0.195845
-0.135872 -0.050550 0.166459
0.092332 0.142397 0.199920
0.196011 0.139295 0.047068
0.012347 -0.015073 0.202834
0.134660 -0.277435 -0.131753
0.145652 -0.075411 0.026382
-0.189017 0.047473 -0.166472
-0.226433 -0.095456 -0.447165
-0.057501 -0.230332 0.058292
0.205309 -0.180342 0.188095
-0.153101 0.214648 -0.399754
0.131865 0.251767 0.174563
-0.151845 -0.190104 -0.227043
-0.058802 0.083589 0.185935
0.037900 -0.252529 0.092039
-0.210906 0.073362 0.070343
-0.227966 0.184898 0.365485
0.109273 0.117751 0.021292
-0.178098 -0.109369 -0.119699
-0.250343 -0.147047 0.373222
-0.157066 -0.003335 0.008727
0.026955 -0.132684 0.013975
-0.017578 -0.223014 0.168437
0.169854 0.264738 0.083829
-0.053465 0.245989 0.071843
0.236190 -0.117859 0.168451
-0.218613 -0.135404 0.311924
0.179659 -0.222239 0.352341
0.166549 0.112577 0.204372
-0.201854 -0.153189 -0.394869
0.211513 -0.014153 0.040074
-0.096374 -0.121667 0.020061
0.112315 -0.165558 0.035936
-0.093570 -0.231731 -0.141787
0.165889 -0.246410 0.304330
-0.243395 -0.168591 0.331792
-0.198743 0.145489 0.278839
-0.215978 0.056565 0.108125
0.229028 0.091813 0.054980
0.159498 -0.202075 0.340818
-0.068632 -0.064225 0.004019
-0.176267 0.085540 0.147910
-0.164052 0.158414 -0.223077
0.175695 0.233572 0.018737
0.026971 -0.069820 0.003854
-0.272882 0.001003 -0.483695
-0.038937 0.092802 0.005950
-0.197301 -0.141406 0.190529
0.071430 0.161633 0.196456
-0.015584 0.089937 0.004950
-0.014665 0.222160 0.174203
0.042535 0.019377 0.001320
-0.148230 -0.138867 -0.179443
0.175095 0.258701 0.031866
-0.237337 -0.009177 -0.451451
-0.102256 -0.194577 -0.161167
0.073131 -0.253485 0.069659
0.164737 0.292242 -0.092121
0.162499 0.072426 0.029344
-0.164994 0.002767 0.009803
-0.248765 0.165513 0.382098
0.040968 -0.161232 0.191010
-0.159852 -0.144796 -0.022609
-0.231144 0.164729 0.297222
-0.251085 -0.150583 0.423766
-0.143230 0.138992 -0.111420
-0.163127 -0.175020 -0.189576
-0.161565 -0.157025 0.052085
0.169713 -0.220620 0.068121
0.182906 0.248837 0.029628
0.137436 0.258761 0.018399
0.038056 -0.131074 0.195675
-0.124508 0.028583 0.170715
0.190986 -0.031219 0.211406
0.104309 -0.202027 0.049368
0.098332 -0.270524 -0.137432
0.046555 0.259754 0.133270
0.238073 -0.095267 0.198136
0.156858 0.228513 0.309447
-0.147411 -0.134787 -0.091611
0.128155 -0.182955 0.189115
0.247291 0.112116 0.136969
-0.175387 0.138285 -0.178211
-0.069962 -0.055439 0.002449
-0.172797 -0.133855 0.014114
0.016574 0.060658 0.203330
0.125424 0.282700 -0.065048
0.219720 0.048853 0.044228
0.131982 -0.145831 0.035915
0.037830 -0.247204 0.163265
-0.039992 -0.180652 0.018068
-0.094049 0.224480 0.043681
0.165374 0.262350 -0.107139
0.020863 -0.018060 -0.000892
-0.198702 0.151150 -0.443949
0.205372 0.264952 0.130811
0.181763 -0.212777 0.342267
0.176450 0.258127 0.025327
-0.131693 0.220352 -0.298758
-0.059849 -0.248378 -0.135799
0.128484 0.273160 -0.132798
-0.073663 -0.207851 -0.131739
-0.136888 0.144696 0.036451
-0.177219 -0.194687 -0.303476
0.103083 -0.098159 0.018599
-0.005735 -0.174877 0.019444
-0.139249 0.117837 0.038796
0.253033 0.010266 0.061244
0.269337 0.046288 0.101750
-0.124168 0.066336 0.169018
0.207995 0.265522 0.246245
-0.124396 0.199374 0.155515
-0.130997 0.075324 0.014490
0.078430 0.144106 0.199419
-0.201018 -0.160503 0.276297
-0.029666 -0.237834 0.150745
0.152034 0.259801 0.162496
-0.105436 -0.147506 0.027911
0.055257 0.243114 0.043908
0.220618 0.048510 0.207297
-0.149195 0.229416 -0.375403
0.211829 0.045409 0.209005
-0.133625 -0.126741 0.037968
-0.225954 0.092433 -0.466766
0.109021 0.281767 -0.085405
0.128976 0.240712 0.005763
0.019070 0.191440 0.020353
-0.124296 -0.194596 0.073127
0.266660 0.009294 0.142211
0.148744 0.242106 0.335702
-0.149551 -0.184612 -0.304830
-0.111061 0.212805 -0.181232
0.181491 0.231760 0.050270
-0.086999 -0.158015 0.167698
0.132592 0.227177 0.421542
0.124063 -0.251571 0.034200
-0.104167 -0.208931 0.127237
-0.233339 -0.156017 0.294828
-0.205900 -0.059835 0.043174
-0.173583 0.151721 -0.116576
-0.250206 -0.178688 0.412004
0.207934 0.165266 0.187613
-0.145364 -0.139542 -0.166204
0.234286 -0.170190 0.112815
0.164781 -0.213223 0.066650
-0.192452 0.173445 0.261336
-0.033927 -0.239534 -0.111941
-0.100325 -0.205972 0.043474
-0.034368 -0.222351 0.034720
-0.159071 -0.097576 -0.066539
0.031657 0.039585 0.000968
0.226191 0.065744 0.050484
-0.154389 0.007489 0.160866
-0.149028 -0.073634 0.022607
-0.191937 0.010197 -0.178299
0.080633 0.261864 -0.136054
0.145192 -0.262141 -0.087866
-0.089110 -0.215978 0.119216
0.038412 -0.082757 0.007593
-0.156849 -0.126029 0.177193
0.120836 0.063426 0.018370
-0.161810 0.004998 0.158364
-0.207394 -0.033922 0.138922
-0.181793 -0.126724 0.057683
0.064155 -0.250536 -0.118592
0.137477 -0.224933 0.474864
0.153102 0.294247 -0.111420
0.150225 0.228621 0.329387
-0.192680 -0.174512 -0.437663
0.258967 -0.069481 0.137849
0.222594 0.261791 0.104389
-0.015843 0.059142 0.000494
-0.049690 0.190853 0.174665
0.133612 0.279625 -0.059890
-0.025620 -0.257705 -0.118122
-0.147716 0.150617 -0.040032
0.157703 0.024576 0.024882
0.032019 -0.248138 0.112238
0.228719 -0.183433 0.073539
-0.120413 0.102494 0.165357
-0.164397 -0.117160 0.178342
0.169334 -0.214532 0.213736
0.179886 0.220280 0.247461
-0.064223 0.239983 0.143321
0.149135 0.196100 0.057001
-0.013433 -0.259624 -0.113016
0.243273 -0.014780 0.205710
-0.132156 -0.055786 0.012119
0.166322 0.066948 0.212311
-0.040348 0.251761 -0.114553
0.195448 0.186917 0.188723
0.122918 -0.211317 0.062330
-0.086122 0.043496 0.183191
0.150722 0.240583 0.187042
-0.161051 -0.141528 -0.071899
0.154905 -0.224592 0.014239
0.212573 -0.230638 0.190552
0.049341 0.199614 0.187340
0.207448 -0.204252 0.203514
0.180509 0.292013 -0.089764
-0.085411 -0.031143 0.001264
-0.176303 -0.137370 0.060022
-0.163342 0.207519 -0.420115
0.144216 0.255061 0.038083
0.026526 0.034532 0.000220
-0.195129 -0.062923 -0.198411
0.127014 0.263892 0.068477
0.204309 0.259946 0.155619
0.179310 0.247514 0.015021
-0.206808 0.131546 -0.439169
-0.197526 0.070123 0.142272
0.136493 0.260564 -0.084347
0.248285 -0.095460 0.143686
0.274353 0.015433 0.111753
0.035982 0.205236 0.027195
0.031723 -0.033116 0.204933
0.145071 0.263044 -0.038754
-0.164131 0.196696 -0.414630
0.165105 0.238134 0.410881
-0.184629 -0.153751 0.228402
-0.046832 0.247223 -0.115647
-0.092675 -0.037732 0.181276
0.009314 -0.188199 0.022741
-0.218234 0.168309 -0.434663
-0.032301 0.240517 -0.114391
0.173456 0.260318 0.196498
-0.161775 0.167716 -0.002784
-0.060217 -0.220100 -0.147922
-0.228230 0.158175 -0.473977
0.045694 -0.253711 -0.138426
-0.019245 0.251777 0.136352
-0.249017 0.104463 -0.449803
-0.228703 -0.101370 -0.473741
0.251314 0.125574 0.119058
-0.163418 0.194376 -0.315123
0.144836 0.263512 -0.086616
-0.113038 -0.185263 0.154979
0.175125 0.220691 0.263014
-0.144274 -0.116385 -0.078806
-0.144272 0.125489 -0.021278
0.224576 -0.037525 0.047963
-0.076546 -0.220939 0.059325
0.255033 0.076992 0.072209
-0.032653 0.030773 0.197303
0.075921 0.065080 0.008492
-0.213786 0.055742 0.083103
0.216854 0.061945 0.044339
0.122343 -0.251197 0.004412
-0.245509 0.090938 -0.494004
0.083147 -0.121904 0.200252
0.061488 0.166852 0.021060
-0.140483 -0.181971 -0.238188
0.141430 -0.250961 0.133620
-0.141426 -0.151929 0.151876
0.192504 -0.256071 0.243456
-0.198170 0.080371 -0.167917
-0.126191 0.059739 0.009218
-0.151743 -0.114446 -0.130576
0.119586 -0.152106 0.194816
-0.234249 -0.146967 0.364649
-0.023675 0.101563 0.006169
0.138404 0.230656 0.015548
-0.059466 0.242881 0.084468
-0.151648 -0.170540 0.046299
0.167024 0.023307 0.212214
-0.039351 -0.070012 0.189760
-0.271505 -0.011285 -0.475188
-0.193721 -0.059118 -0.193423
-0.134961 0.203760 0.094902
0.214712 0.133705 0.053201
0.038501 0.182560 0.191035
0.262349 -0.016578 0.162067
-0.151672 0.078676 0.157405
0.218052 -0.030834 0.043391
-0.231117 -0.081829 -0.466611
0.115665 0.264898 0.067573
-0.255274 -0.062842 -0.435158
0.005159 0.035477 -0.000873
0.233755 0.071072 0.203037
-0.157766 -0.097512 -0.073403
-0.150013 -0.214108 -0.314629
-0.202872 -0.074435 0.043227
-0.152682 -0.165121 -0.255520
-0.130950 0.043397 0.168942
-0.122196 0.201460 -0.144392
-0.007549 0.062376 0.000449
-0.164081 -0.159172 -0.254202
0.234868 -0.126734 0.068786
-0.109025 0.013906 0.002950
-0.009464 0.254895 -0.110005
-0.238751 0.060635 -0.487961
0.145753 0.257383 0.471123
0.266603 -0.039897 0.137267
0.251718 0.130967 0.104927
0.237420 0.125591 0.063894
-0.173171 -0.124988 0.227476
-0.205507 -0.043891 -0.169663
0.235584 0.187772 0.122453
0.051238 0.254525 0.172791
-0.214143 0.032718 0.053200
-0.181805 -0.141279 0.115018
0.159532 0.045171 0.025394
0.134173 0.270596 -0.016892
-0.030135 0.206627 0.024551
-0.256354 -0.073234 -0.435743
0.214659 -0.224727 0.169964
0.198742 0.062515 0.038400
0.106208 -0.249471 0.153661
-0.014535 -0.077699 0.003578
-0.141187 0.148168 -0.022794
0.086212 -0.236001 0.173874
0.219779 -0.222460 0.144852
-0.163279 0.126913 -0.140014
-0.114423 0.219297 0.077005
0.107177 -0.245701 0.170882
0.168155 0.039568 0.027437
0.027134 0.196888 0.023082
-0.256407 -0.053217 -0.494866
-0.104915 -0.028515 0.177668
0.141152 0.221513 0.360444
-0.043167 0.189150 0.020382
0.009927 0.201730 0.022550
0.071783 0.007556 0.003703
0.236102 0.183085 0.072398
-0.240761 0.003862 -0.474024
0.150695 0.267197 -0.023152
0.166560 -0.191576 0.193652
0.112683 -0.072771 0.017888
0.102859 0.266377 0.079524
0.067882 0.260288 0.138741
0.010171 0.026747 -0.001208
-0.092567 -0.118320 0.170156
-0.093922 0.228084 0.138546
-0.147142 -0.132754 -0.157981
-0.185307 0.157912 0.274564
0.247336 0.062608 0.200276
-0.018099 0.020846 0.199199
-0.169294 -0.138891 0.009236
-0.063037 0.240748 0.115784
0.093604 0.258207 0.170913
-0.106302 0.201689 -0.170307
0.151186 0.260341 0.148363
-0.182956 -0.016576 0.150096
0.053322 -0.214953 0.038254
-0.211430 0.023449 -0.181369
-0.215550 0.025799 0.134139
-0.242094 -0.136717 -0.443266
-0.178028 -0.208489 -0.407439
0.240236 0.201325 0.089707
0.138255 0.200283 0.058475
-0.255633 -0.089480 -0.437991
0.179530 0.289027 -0.101341
-0.144001 0.140297 -0.131768
0.034985 -0.125449 0.196214
-0.161005 -0.147714 -0.011550
0.166153 0.263271 -0.100673
0.233463 0.150488 0.145008
0.236245 -0.164531 0.102097
-0.147828 0.170933 -0.248566
0.144712 0.255215 0.480033
-0.211335 0.042306 0.048626
-0.089415 0.035675 0.182100
0.204681 0.263577 0.212552
0.146460 -0.275906 -0.128274
-0.152219 -0.132608 -0.180986
0.139331 0.133273 0.032605
0.127594 -0.129062 0.030911
-0.115082 0.194816 -0.183709
-0.231301 -0.156960 -0.434137
-0.268666 0.051391 -0.487336
-0.025536 -0.107769 0.006372
0.117103 0.117083 0.022847
-0.207104 -0.013717 -0.211479
0.121925 -0.139026 0.197551
0.124013 0.187987 0.043657
0.163477 -0.130799 0.038879
-0.240179 -0.148143 -0.455636
-0.170755 0.081655 0.150206
-0.178977 -0.046285 0.150464
0.258772 -0.053615 0.156143
0.200568 0.259817 0.171772
0.013320 0.088225 0.200383
-0.198510 -0.144368 0.297347
0.270559 -0.017175 0.098641
0.005303 0.267387 -0.111533
0.127656 -0.031391 0.017832
-0.178999 -0.151936 -0.198649
