0.32989076 0.61456650 0.82886684 0.00000626 -0.00007717 -0.00014388
0.60617900 0.54590881 0.31629440 -0.00008428 0.00004372 -0.00004207
0.73045307 0.54139137 0.50241601 0.00014074 -0.00009181 0.00012587
0.39360195 0.52626634 0.32680747 0.00005559 -0.00004168 0.00001981
0.59979695 0.48920238 0.17762983 0.00005726 -0.00000150 0.00004455
0.24535887 0.49071881 0.56307894 -0.00007751 0.00007959 0.00017790
0.53297293 0.51359868 0.94621611 0.00007748 -0.00004576 0.00006567
0.47962841 0.23788680 0.78999096 -0.00012161 -0.00019826 0.00021446
0.39206827 0.42607939 0.08349307 -0.00022709 -0.00014510 -0.00001837
0.47322184 0.59070569 0.04545454 -0.00001428 0.00003997 -0.00023224
0.24812624 0.41016248 0.56702632 -0.00007925 -0.00012345 -0.00021095
0.65322417 0.67039925 0.78270435 -0.00004382 -0.00012094 0.00004020
0.48689869 0.39382288 0.24669936 -0.00008069 -0.00015379 -0.00004188
0.55335629 0.27997366 0.81315893 0.00007646 0.00002554 -0.00015486
0.33367816 0.68161422 0.61006141 0.00007334 -0.00005685 0.00006581
0.47490555 0.46484885 0.04545454 0.00000127 -0.00000827 -0.00019031
0.50176007 0.23937868 0.56396896 0.00006746 0.00000020 -0.00016831
0.62339407 0.51572233 0.28694072 0.00012977 0.00009733 -0.00016859
0.77449089 0.49229702 0.64025688 0.00014764 -0.00010107 0.00016435
0.35336608 0.31111830 0.51715833 -0.00005591 0.00001999 0.00018819
0.56010014 0.40317863 0.14642969 0.00007228 -0.00009857 -0.00005423
0.35861355 0.50038636 0.93451393 -0.00012513 0.00002373 0.00030494
0.72011453 0.65185136 0.70515633 -0.00001868 0.00011859 -0.00018633
0.45626310 0.34982777 0.34837639 0.00012289 -0.00008688 -0.00012235
0.43365419 0.58738744 0.14400324 -0.00006058 0.00012464 -0.00004430
0.45530397 0.56924230 0.04545454 0.00001216 -0.00000850 -0.00021819
0.74493355 0.54234231 0.66242766 -0.00013693 -0.00004356 0.00002261
0.70134848 0.64785761 0.75119418 -0.00000898 -0.00013968 0.00013504
0.33486456 0.65378505 0.84424001 0.00003370 0.00015724 0.00024635
0.48723054 0.34605038 0.39030141 0.00005440 0.00006350 -0.00000045
0.56943685 0.38846177 0.29595101 0.00009305 -0.00012797 -0.00013844
0.49415347 0.39119369 0.25601786 -0.00007898 -0.00015861 0.00001637
0.48747593 0.45921960 0.92047793 -0.00003582 -0.00001837 -0.00007280
0.62893975 0.42016375 0.35787758 0.00003396 0.00011604 -0.00008684
0.34984052 0.54937708 0.90205920 0.00014201 0.00007708 0.00004003
0.45078111 0.65681976 0.37817281 0.00007313 0.00019389 0.00006451
0.61152828 0.52755362 0.33690873 -0.00004900 -0.00005472 0.00005606
0.60893089 0.57893896 0.90099734 -0.00002163 0.00004820 -0.00010703
0.52667725 0.70037478 0.49230841 -0.00001060 -0.00008295 0.00003224
0.61726749 0.42544118 0.37577999 -0.00004356 0.00005951 0.00000976
0.34313574 0.54830706 0.90987217 0.00008400 0.00011455 0.00017209
0.39151007 0.23663403 0.71792948 -0.00014076 -0.00028501 0.00006529
0.30270714 0.66119534 0.63424039 0.00008352 -0.00002729 0.00012768
0.40149859 0.47128543 0.23319529 -0.00012902 -0.00006809 -0.00010134
0.54357237 0.30022612 0.83093411 -0.00004083 0.00009676 -0.00003940
0.53202742 0.61671203 0.28588703 0.00008885 0.00015467 -0.00007901
0.34084657 0.41989189 0.41370943 0.00011937 -0.00004826 -0.00003903
0.57242060 0.43668246 0.21134365 0.00008665 -0.00007080 -0.00007350
0.70768595 0.56544948 0.51955295 -0.00006417 -0.00004686 0.00005783
0.70524681 0.57046783 0.48977557 -0.00010644 0.00003026 -0.00006026
0.53640121 0.52391446 0.94939172 0.00006525 -0.00007172 0.00014965
0.50089824 0.40321317 0.93406206 0.00015215 -0.00010456 0.00004890
0.64813405 0.67151022 0.77361947 -0.00005750 -0.00008500 -0.00000146
0.52134436 0.66673279 0.86746895 0.00001308 -0.00008212 -0.00005280
0.40732512 0.41429538 0.31847811 -0.00008733 0.00004184 0.00011397
0.39988944 0.55002892 0.15179986 -0.00012048 0.00007490 -0.00010234
0.68463618 0.65245956 0.75365341 -0.00004131 -0.00011060 0.00006828
0.38918182 0.52371353 0.16433211 -0.00015170 0.00001863 0.00009043
0.37766689 0.46094966 0.09008965 -0.00022359 -0.00007156 0.00005815
0.70237398 0.52595359 0.88179404 0.00020483 -0.00002271 0.00021996
0.62053037 0.71380711 0.81194806 0.00002827 0.00027346 0.00002582
0.24660257 0.52241260 0.72696614 0.00008892 0.00003842 0.00010321
0.69733745 0.53957856 0.88321859 0.00023875 0.00009544 0.00009123
0.49604446 0.60454345 0.17039686 0.00000469 0.00012207 0.00004779
0.48666322 0.64836037 0.33942607 0.00010516 0.00025112 0.00001151
0.57648802 0.67343664 0.46299285 -0.00001460 -0.00007398 0.00007963
0.68669707 0.54433239 0.89562267 0.00019385 0.00000555 0.00020607
0.72984940 0.63904732 0.73254722 0.00017068 -0.00002079 0.00017892
0.73412234 0.54223323 0.48089349 0.00023292 0.00003829 -0.00007778
0.33449638 0.39328739 0.46597567 0.00004260 0.00003042 0.00009959
0.42293656 0.44576642 0.25098860 0.00007523 -0.00003547 -0.00003738
0.54636878 0.22068533 0.61156327 -0.00001307 -0.00026582 0.00014470
0.55395907 0.53792763 0.24270107 -0.00002770 -0.00003048 -0.00001011
0.55450636 0.51671600 0.18325454 -0.00005884 -0.00002846 -0.00004237
0.44321996 0.47515103 0.95021439 -0.00002344 -0.00009907 0.00023534
0.37802324 0.30568814 0.49138018 0.00015017 -0.00001294 -0.00008693
0.43246868 0.58798927 0.15333173 -0.00010193 0.00013371 -0.00008684
0.38219976 0.71051878 0.58299416 0.00004938 -0.00003826 0.00009692
0.49672717 0.63202894 0.30659589 -0.00003124 0.00015872 -0.00014356
0.36936843 0.49785903 0.35274196 0.00006306 -0.00005230 0.00000895
0.37839052 0.54290503 0.04673641 -0.00017499 0.00012713 -0.00022957
0.22115898 0.54090136 0.68995124 -0.00023705 -0.00003588 -0.00014691
0.59369493 0.30862826 0.87552285 0.00017232 -0.00022130 0.00012313
0.56892771 0.44482818 0.94267786 -0.00006387 -0.00015966 0.00008957
0.60594898 0.40726423 0.93419027 0.00000747 -0.00013420 0.00028123
0.27220160 0.50304919 0.52711594 0.00008995 -0.00005586 -0.00002588
0.27773449 0.51733786 0.53469253 0.00007183 -0.00002974 0.00003524
0.67173570 0.69903570 0.76705205 0.00004763 0.00025107 -0.00002593
0.47555646 0.55962110 0.91995794 0.00005402 0.00000190 -0.00008656
0.74543995 0.43675792 0.80287409 0.00026605 0.00002096 0.00001290
0.62797517 0.49025789 0.04804464 0.00028875 0.00009764 -0.00020292
0.52604359 0.41475990 0.26145077 0.00001887 0.00006942 -0.00002071
0.56108838 0.29999977 0.82643670 0.00002204 0.00008168 -0.00009268
0.58984935 0.71597534 0.82616943 -0.00002530 0.00024748 -0.00001851
0.50218463 0.25763291 0.77104580 0.00008458 0.00002568 -0.00010625
0.41918188 0.37452859 0.90004641 -0.00000925 0.00008050 -0.00003172
0.47365370 0.67314756 0.89517170 -0.00019636 0.00015302 -0.00005103
0.58259910 0.41974735 0.15459453 0.00014993 -0.00010235 -0.00007907
0.52290624 0.38683447 0.14821975 0.00002129 -0.00014963 -0.00007054
0.53157836 0.69734287 0.84925562 -0.00008082 0.00007134 -0.00013619
0.56817770 0.70332766 0.47669697 0.00011943 0.00000250 0.00011676
0.60099703 0.59804326 0.37555364 -0.00008882 0.00001053 -0.00000666
0.66609001 0.44134715 0.38989046 0.00006440 0.00010302 -0.00014545
0.47173548 0.42671943 0.24296835 -0.00001261 0.00004624 0.00001339
0.51936334 0.25604832 0.78379989 0.00011297 -0.00003912 -0.00015088
0.62309861 0.46481341 0.08047660 0.00024924 -0.00003380 0.00003214
0.56385118 0.67538941 0.43496013 -0.00010405 -0.00002530 -0.00005221
0.59656322 0.62955248 0.39060593 -0.00011445 0.00001752 -0.00005837
0.51614326 0.60665900 0.14853431 -0.00000485 0.00013122 -0.00007067
0.47291914 0.75060195 0.70796007 0.00004469 -0.00008597 0.00008483
0.53429663 0.39744934 0.26069438 0.00009826 -0.00002053 -0.00012964
0.53066283 0.55624461 0.18257362 -0.00002856 -0.00006343 -0.00003902
0.65785706 0.67420214 0.58046770 -0.00004592 -0.00009318 0.00004912
0.23954776 0.49929544 0.55059755 -0.00020646 0.00012658 0.00014067
0.32695156 0.54181683 0.87552470 -0.00007259 -0.00007165 -0.00017083
0.49040696 0.41670725 0.94958985 0.00005810 -0.00007196 0.00025872
0.32945800 0.31006375 0.66814053 0.00004577 0.00009118 0.00005209
0.38069698 0.70749962 0.54968214 -0.00004997 -0.00009711 -0.00008114
0.52452898 0.58819926 0.30271667 -0.00000061 -0.00006063 0.00002457
0.47069994 0.41273531 0.20363250 0.00004381 -0.00004469 -0.00008406
0.71311796 0.57694805 0.48825642 -0.00006979 0.00007425 -0.00013881
0.57690984 0.70389766 0.44881967 0.00016112 0.00018393 -0.00007142
0.63797092 0.43484423 0.37927103 -0.00002593 0.00009556 -0.00003741
0.70198578 0.63356441 0.72515881 -0.00008236 -0.00008825 0.00002347
0.48320583 0.68119419 0.89530903 -0.00014436 0.00023054 0.00000673
0.26022756 0.52634907 0.54672837 -0.00001223 0.00005707 0.00014126
0.61064368 0.62549782 0.42312336 0.00000432 -0.00005732 0.00009941
0.47290549 0.26290125 0.56441164 0.00001717 0.00008832 -0.00000028
0.50361556 0.25629923 0.58010221 0.00002361 0.00008527 -0.00000004
0.59500313 0.58402187 0.05778677 0.00024132 0.00016034 0.00008655
0.49772903 0.38365433 0.15103438 -0.00001468 -0.00015849 -0.00006621
0.50042456 0.60472077 0.32721204 -0.00001250 -0.00007073 0.00003124
0.47840202 0.57098323 0.93740493 0.00011807 0.00008407 0.00004443
0.68021965 0.69452554 0.75675529 0.00006097 0.00026071 -0.00009337
0.47926930 0.58348823 0.18373275 -0.00003798 -0.00000360 -0.00003056
0.56804949 0.68792164 0.82607216 -0.00003445 -0.00005877 -0.00006733
0.61054552 0.39655024 0.37729096 -0.00005833 -0.00007657 0.00009777
0.69662380 0.52170348 0.47410867 -0.00007420 0.00002217 0.00001660
0.51796877 0.31755581 0.44487771 -0.00001675 0.00006475 0.00006500
0.46228695 0.38285616 0.11320134 -0.00007300 -0.00018332 0.00000258
0.44462547 0.37287763 0.37112984 0.00002730 0.00006292 0.00005697
0.40288678 0.24557798 0.69743973 0.00009607 -0.00005192 -0.00016871
0.31517571 0.59722048 0.45686725 0.00000575 -0.00016176 -0.00010341
0.62514144 0.67841136 0.80500692 -0.00000866 -0.00011598 0.00000624
0.39919943 0.56901503 0.28971350 -0.00007064 0.00019864 0.00001942
0.32929802 0.30438811 0.67584991 0.00000424 0.00009953 0.00009980
0.47558102 0.37059847 0.08487402 -0.00003809 -0.00026846 0.00001029
0.63970643 0.58451188 0.90730119 0.00011478 0.00022588 -0.00004031
0.57062507 0.45416576 0.20789264 -0.00000914 0.00004427 -0.00009005
0.29061130 0.58083451 0.47261867 -0.00005149 -0.00011615 -0.00017236
0.23455670 0.48928419 0.75368702 -0.00006945 0.00012599 0.00019448
0.69088542 0.50380832 0.46256921 -0.00008030 0.00002992 0.00003026
0.63173801 0.32871523 0.50891346 -0.00003968 0.00008149 0.00001191
0.62206590 0.50063002 0.09945087 0.00018803 0.00002024 0.00006088
0.46183330 0.61974669 0.35963765 -0.00003186 -0.00008150 0.00001101
0.63384628 0.71098697 0.80612874 0.00014380 0.00024284 0.00008390
0.34715134 0.68498975 0.57973945 0.00004899 -0.00009973 -0.00000770
0.51388049 0.68295336 0.89943099 0.00009639 0.00008415 0.00025944
0.48766321 0.55918014 0.04545454 -0.00000113 0.00002021 -0.00019862
0.29179043 0.30284622 0.64285791 -0.00021435 -0.00023071 0.00004136
0.65148592 0.44883832 0.41364396 -0.00006894 0.00005234 0.00002616
0.50718659 0.55170351 0.17950442 -0.00000483 -0.00004590 -0.00001738
0.30332354 0.59830689 0.45946914 -0.00011926 -0.00013095 -0.00016452
0.43108591 0.37491134 0.36427510 -0.00006084 0.00005993 0.00007245
0.35190967 0.70194304 0.80376774 -0.00003803 0.00018751 0.00018954
0.58853203 0.40820244 0.91786242 -0.00012166 -0.00002580 -0.00003236
0.57355154 0.39728117 0.09825538 0.00013289 -0.00017842 0.00002093
0.29182771 0.64975494 0.64343882 0.00007850 -0.00000812 0.00012916
0.65953618 0.31184196 0.49898317 0.00020459 -0.00009498 -0.00016413
0.34320483 0.50721115 0.92634094 -0.00021808 -0.00006802 0.00023863
0.44565731 0.64606392 0.35169464 -0.00015338 0.00005540 -0.00013275
0.47725379 0.38588986 0.13942219 -0.00003520 -0.00014220 -0.00000064
0.39825848 0.62961155 0.39407152 -0.00006736 -0.00011380 -0.00008153
0.45047840 0.77185535 0.69095045 -0.00010056 0.00019127 -0.00010380
0.71088606 0.46610162 0.44668871 0.00018767 -0.00011776 0.00002113
0.53258377 0.40256861 0.30627406 -0.00002105 0.00001946 0.00007454
0.71999913 0.52328080 0.49747944 0.00001493 -0.00007727 0.00011780
0.36996299 0.35487157 0.85540402 0.00007731 -0.00002597 -0.00012885
0.60386074 0.41030613 0.89777356 -0.00003329 0.00001572 -0.00010443
0.37286854 0.26517409 0.71594214 -0.00007430 0.00006519 0.00017870
0.45344484 0.53252649 0.17794801 0.00003989 -0.00000815 0.00000162
0.59378856 0.50201190 0.26275355 -0.00003883 0.00006649 -0.00005650
0.64405566 0.73082030 0.58505422 0.00013095 0.00022469 -0.00014904
0.48197398 0.72535658 0.53184789 0.00006547 -0.00000614 0.00011607
0.43328238 0.43087226 0.28572613 0.00006047 0.00000578 0.00000569
0.35506523 0.62279409 0.42286700 -0.00005395 -0.00009333 -0.00015116
0.42765674 0.55685550 0.19036750 -0.00003757 0.00005881 0.00002020
0.59483862 0.68630522 0.84107172 0.00005674 -0.00009678 0.00009756
0.39108372 0.50265187 0.17062505 -0.00004578 0.00002198 0.00015462
0.32048136 0.64904225 0.84023529 -0.00021952 0.00018752 0.00014639
0.68879986 0.32638517 0.52116114 0.00017039 -0.00021732 -0.00012497
0.56474125 0.52467537 0.23106067 -0.00002055 -0.00002886 -0.00000751
0.33640280 0.38651535 0.85806865 0.00000204 0.00012188 0.00005311
0.37145030 0.73199493 0.57477021 -0.00005662 0.00022272 0.00012316
0.51342869 0.54164410 0.93015373 -0.00004220 0.00004059 -0.00007292
0.60726357 0.56641948 0.07345182 0.00021132 0.00015066 -0.00000890
0.49509439 0.36703742 0.07332274 -0.00000223 -0.00028965 -0.00002222
0.53139108 0.49267977 0.92024159 0.00000048 0.00001611 -0.00006953
0.54186958 0.68944716 0.47401688 -0.00003087 -0.00008140 0.00000695
0.62466687 0.31394568 0.47958344 0.00006319 0.00009213 -0.00012534
0.58195728 0.68855625 0.42923629 -0.00000184 0.00016846 -0.00016810
0.42907223 0.58012176 0.26994196 -0.00000404 0.00014901 0.00002731
0.39744663 0.54825979 0.13145737 -0.00013775 0.00005830 0.00000832
0.70338947 0.37424496 0.53584892 0.00000093 0.00008380 -0.00010229
0.27059060 0.51989698 0.54565561 0.00007970 0.00000635 0.00006846
0.28495747 0.59219575 0.47322595 -0.00022672 0.00003023 -0.00017127
0.50038546 0.62375230 0.08656771 0.00000753 0.00023611 0.00006503
0.62573141 0.28090733 0.65077180 -0.00003714 0.00007305 -0.00002498
0.47137636 0.74378353 0.68520385 -0.00003161 -0.00008656 -0.00000015
0.74013793 0.45805043 0.60455751 -0.00008444 0.00002961 0.00000278
0.31880039 0.47184998 0.38922408 -0.00026242 0.00007252 -0.00002264
0.43441874 0.36742017 0.89228892 0.00000497 0.00003115 -0.00006587
0.64277476 0.29240769 0.67699361 -0.00007760 0.00007106 0.00003881
0.74968463 0.50399464 0.61800528 -0.00008731 0.00000595 -0.00005812
0.35038963 0.47687832 0.40019080 0.00006396 0.00001601 0.00005515
0.57300609 0.60163063 0.07840928 0.00014695 0.00020815 0.00000226
0.30693546 0.28724843 0.66046941 -0.00024296 -0.00020434 0.00007082
0.47812021 0.40642053 0.04545454 0.00002436 -0.00002837 -0.00023171
0.46357429 0.64835036 0.89267981 -0.00007018 -0.00000920 -0.00012301
0.46609983 0.36803931 0.93695486 -0.00002446 -0.00019840 0.00024361
0.34159660 0.63839281 0.85122389 0.00011028 0.00008738 0.00013649
0.44245538 0.22856650 0.73673826 0.00001255 -0.00029117 -0.00002765
0.25380459 0.62364680 0.63145661 -0.00017778 -0.00004184 -0.00017712
0.69201273 0.60185516 0.52624494 -0.00007298 -0.00003585 -0.00000497
0.52154255 0.29152220 0.44402954 -0.00012615 -0.00015073 0.00013711
0.34707588 0.66363090 0.83360332 0.00014998 0.00008491 0.00015251
0.58778292 0.42666396 0.16566488 0.00013619 -0.00008251 0.00005522
0.69052631 0.61661661 0.54444826 -0.00005458 -0.00005923 0.00004922
0.55407363 0.31300291 0.43696564 0.00005636 0.00011188 -0.00004613
0.65961802 0.69777018 0.59626818 0.00006283 -0.00005057 0.00017246
0.66894835 0.29326773 0.66398132 0.00005665 0.00010088 -0.00014220
0.72736019 0.56553578 0.51812196 0.00007902 -0.00007465 0.00014525
0.60918087 0.23744224 0.64929807 0.00004240 -0.00028107 0.00010640
0.45789319 0.57020140 0.26385629 0.00003758 -0.00000935 0.00003424
0.75427204 0.43040133 0.57183099 0.00007064 0.00004408 -0.00017925
0.51319677 0.24257150 0.57055914 0.00009467 0.00006843 -0.00011001
0.68705076 0.48528767 0.43066454 -0.00006225 0.00009707 -0.00005621
0.44223627 0.37953877 0.06932986 -0.00012703 -0.00027305 -0.00006841
0.44647551 0.23674496 0.54943758 -0.00002575 -0.00023358 -0.00011772
0.55304629 0.40527326 0.32267460 -0.00002482 0.00004049 0.00005849
0.56284297 0.32243416 0.86490887 -0.00010419 0.00007496 0.00001614
0.65294778 0.26964968 0.68704206 -0.00002898 -0.00011650 0.00021416
0.44633552 0.57333881 0.27206293 0.00005516 0.00001606 0.00005206
0.50964487 0.37896782 0.04545454 0.00004302 0.00003575 -0.00027914
0.48314857 0.43793157 0.91969979 -0.00004695 -0.00002210 -0.00007544
0.38110882 0.44244081 0.06879530 -0.00026107 -0.00012514 -0.00001670
0.40761426 0.75862402 0.72227508 -0.00019576 0.00017908 -0.00003323
0.48071668 0.45599493 0.17216328 0.00000533 0.00002171 -0.00000601
0.53681761 0.56249392 0.26682910 -0.00001747 -0.00004032 0.00000235
0.46250695 0.24710165 0.73872739 0.00009547 0.00005102 -0.00013077
0.55229807 0.42011553 0.21061090 0.00001599 -0.00010113 0.00000476
0.27461258 0.58656287 0.48551181 -0.00025935 0.00009865 -0.00014410
0.60500163 0.31924132 0.48629910 -0.00002957 0.00009138 0.00000628
0.73146039 0.42980313 0.59430355 -0.00009165 0.00002436 0.00003237
0.54575336 0.46619070 0.91947979 0.00000409 -0.00005698 -0.00006830
0.53532207 0.61764938 0.08739774 0.00010342 0.00020869 0.00000031
0.69143540 0.49260885 0.84481364 -0.00010646 -0.00001001 -0.00003291
0.39714387 0.74245161 0.72208869 -0.00014614 -0.00000576 -0.00016854
0.52478993 0.60704172 0.27063015 -0.00008283 0.00008603 -0.00013060
0.54450780 0.52106524 0.93688226 0.00009407 -0.00007155 -0.00004170
0.57930082 0.70097488 0.46376199 0.00016636 0.00011756 0.00007569
0.34524214 0.34184659 0.50173599 0.00002737 0.00007465 0.00012341
0.37376767 0.30571815 0.52840686 -0.00000855 0.00004744 0.00010659
0.69975388 0.66956919 0.55567956 0.00022555 0.00011980 0.00003056
0.30056161 0.34522671 0.61991805 0.00008018 0.00003541 -0.00005434
0.63196343 0.26419312 0.67742723 -0.00011515 -0.00006050 0.00016220
0.47031629 0.76290596 0.67030609 -0.00011563 -0.00001636 -0.00015004
0.43777978 0.36791834 0.37274718 -0.00003926 0.00004876 0.00008192
0.53403568 0.58886749 0.30027568 0.00002578 -0.00005083 0.00004028
0.34701496 0.56415123 0.89135700 0.00011558 0.00006163 0.00006075
0.46730983 0.63670725 0.89361888 0.00000969 -0.00003569 -0.00010042
0.64564484 0.55899286 0.88120759 -0.00004580 -0.00001768 -0.00008823
0.57060415 0.58138722 0.92278713 -0.00005159 0.00015644 -0.00008842
0.52088523 0.46480522 0.92822737 0.00001223 -0.00002165 -0.00009329
0.28853938 0.42465481 0.79406297 0.00006513 0.00006024 -0.00002517
0.40229678 0.62360954 0.40781561 0.00000245 -0.00010634 0.00001481
0.75012833 0.41640818 0.56491172 0.00008842 0.00004307 -0.00021749
0.61309195 0.42348838 0.93501025 0.00016908 -0.00002180 0.00026466
0.40851972 0.34160751 0.88325858 0.00003616 -0.00014750 -0.00011741
0.42215925 0.63431448 0.37204534 -0.00009453 -0.00007128 -0.00010892
0.61069912 0.39150551 0.33577231 0.00017105 -0.00009430 -0.00015782
0.38865453 0.55089986 0.10039271 -0.00020225 0.00007992 -0.00000658
0.41057709 0.25262001 0.53294879 -0.00007351 -0.00027202 -0.00008565
0.25178635 0.37905508 0.61496425 -0.00020035 -0.00002553 0.00013805
0.69830382 0.52091980 0.46418291 -0.00008775 0.00004933 -0.00000995
0.32930166 0.37955236 0.47583693 0.00000484 0.00006094 0.00013712
0.48764235 0.61877578 0.10008544 -0.00000642 0.00020189 0.00001143
0.61393106 0.50699568 0.31913087 -0.00000577 -0.00007632 0.00007250
0.46475884 0.62628782 0.37324899 0.00001989 -0.00006816 0.00006651
0.69803381 0.38068154 0.55047303 -0.00005423 0.00006722 0.00000524
0.46547979 0.61935574 0.90223008 0.00005258 -0.00002778 -0.00008704
0.41456991 0.52792817 0.21357919 -0.00004236 0.00005916 0.00004685
0.67858768 0.67576492 0.58147132 0.00008004 -0.00006066 0.00013843
0.25690198 0.47165635 0.73601282 0.00009120 -0.00002518 -0.00003057
0.59738779 0.39615840 0.32093906 0.00013551 -0.00000451 -0.00014090
0.60341614 0.53643030 0.16726676 0.00015418 0.00002397 0.00006924
0.42726398 0.41344261 0.16929953 -0.00006011 -0.00010081 0.00012687
0.49433619 0.23405667 0.77768964 0.00014292 -0.00025579 -0.00009314
0.41974282 0.36878568 0.91769975 -0.00009526 0.00011382 0.00011640
0.73717785 0.43414694 0.60333210 -0.00009058 0.00000543 0.00006661
0.38986731 0.48864511 0.16986319 -0.00007504 -0.00001473 0.00013175
0.66390270 0.56821406 0.88352948 0.00000754 0.00015350 -0.00011397
0.25776929 0.63832188 0.62809557 -0.00021733 0.00004457 -0.00015409
0.60771900 0.54030132 0.34358621 -0.00007089 -0.00003449 0.00003299
0.54078048 0.71082425 0.45572263 -0.00006075 0.00007211 -0.00017045
0.65957892 0.29594964 0.69943345 -0.00011807 0.00001931 0.00008490
0.45310482 0.23297572 0.76897389 -0.00010197 -0.00027473 0.00014542
0.53547847 0.26237488 0.79755026 0.00012968 -0.00000598 -0.00015601
0.59733415 0.67596585 0.42060965 0.00006413 0.00019253 -0.00015271
0.78001744 0.48580679 0.61576790 0.00027293 -0.00002026 -0.00008405
0.49873543 0.75812495 0.65375280 -0.00010826 -0.00005292 -0.00009838
0.54948252 0.40994522 0.04545454 0.00000721 -0.00002835 -0.00025299
0.55250359 0.50772303 0.17842530 -0.00004981 -0.00000854 -0.00002419
0.46871901 0.38700262 0.13335925 -0.00004383 -0.00014416 0.00000989
0.29008397 0.56898773 0.48036888 0.00001756 -0.00012214 -0.00011514
0.52852643 0.40321317 0.18614192 0.00001305 -0.00008807 0.00000607
0.59415585 0.58446187 0.07043356 0.00018971 0.00019055 -0.00001625
0.55891013 0.50948578 0.04545454 0.00001374 0.00001161 -0.00019844
0.65181684 0.30030978 0.51578826 0.00011387 -0.00022809 0.00006486
0.25606832 0.49289343 0.52403581 0.00002884 -0.00009533 -0.00016232
0.42945677 0.37827870 0.31351611 0.00004537 -0.00014903 -0.00012928
0.54686242 0.56854230 0.18280725 0.00002580 -0.00005443 -0.00002081
0.51414233 0.67844319 0.85972506 -0.00003658 -0.00004230 -0.00010926
0.68441433 0.47766384 0.45694083 -0.00007887 0.00000553 0.00006435
0.65407234 0.44194627 0.38746220 -0.00001730 0.00010707 -0.00008701
0.54859620 0.52731454 0.92989463 0.00007014 -0.00006697 -0.00006966
0.59657049 0.41802457 0.09311247 0.00017181 -0.00013143 0.00004858
0.57641345 0.40658966 0.30811048 0.00006958 0.00009256 -0.00003604
0.63756639 0.26906964 0.68163282 -0.00011168 -0.00003158 0.00016293
0.53275019 0.60283339 0.14148588 0.00004115 0.00012424 -0.00001566
0.31536576 0.43751705 0.40254813 -0.00020889 -0.00009571 -0.00014745
0.39163461 0.75100011 0.74330217 -0.00014667 0.00027141 -0.00000388
0.39421561 0.75119191 0.73392731 -0.00017677 0.00020395 -0.00006975
0.46452069 0.64162469 0.37996924 0.00006547 -0.00000509 0.00010026
0.40285680 0.72517836 0.76430374 0.00013521 -0.00004468 0.00009933
0.50649840 0.62118310 0.09315611 0.00000590 0.00021286 0.00002877
0.33690551 0.39417470 0.42754170 0.00010439 -0.00007206 -0.00010290
0.38381344 0.52868277 0.11282313 -0.00018493 0.00006814 0.00000971
0.74648720 0.49635532 0.62911201 -0.00009306 -0.00002465 0.00001978
0.45787951 0.56116563 0.26255080 0.00002341 -0.00002781 0.00001459
0.43930438 0.39299193 0.31188422 0.00010069 -0.00000133 -0.00004056
0.27173519 0.39494473 0.61127234 0.00007093 0.00004875 0.00008313
0.57363880 0.55023712 0.20878902 0.00001829 0.00005261 -0.00009252
0.47526190 0.74478358 0.50629616 -0.00004987 0.00025340 -0.00006317
0.54566151 0.29242316 0.46662301 -0.00010119 -0.00005486 0.00014087
0.36701110 0.28673294 0.52444124 -0.00016727 -0.00008679 0.00014848
0.63295352 0.59860146 0.36264685 0.00019563 0.00013272 -0.00007061
0.73512506 0.39177370 0.55057847 0.00008746 0.00004032 -0.00019294
0.51369137 0.43563515 0.18182723 -0.00002136 0.00004148 -0.00002751
0.32810253 0.67802858 0.58386868 0.00001573 -0.00010197 -0.00006434
0.66712558 0.52354437 0.87778294 -0.00007775 -0.00007335 -0.00003511
0.75144565 0.53931856 0.63403034 -0.00011020 0.00001300 -0.00009548
0.30226439 0.41029796 0.82137746 0.00007550 0.00009489 0.00000199
0.73761243 0.39726937 0.75306153 0.00009177 0.00007778 -0.00013918
0.47820929 0.24775803 0.79538566 -0.00015086 -0.00003892 0.00022289
0.49141702 0.60630989 0.31748807 -0.00005319 -0.00007607 -0.00000277
0.38492346 0.49443343 0.16210657 -0.00019365 0.00000574 0.00001485
0.26344675 0.64704669 0.62298453 -0.00023279 0.00006124 -0.00012079
0.48189580 0.64062011 0.92323619 0.00014046 -0.00001726 0.00014071
0.69787657 0.34897774 0.71438301 -0.00003999 0.00007056 -0.00004591
0.35295513 0.51453686 0.89107066 0.00003292 -0.00003092 -0.00010126
0.42221290 0.49579167 0.19700864 0.00004423 -0.00001815 -0.00005672
0.58457732 0.42355022 0.13911945 0.00012161 -0.00007264 -0.00001090
0.55466998 0.40079400 0.28120324 0.00009932 0.00001950 -0.00008338
0.61131549 0.56317025 0.32876846 -0.00009383 0.00005879 -0.00007235
0.62433320 0.52859730 0.33917335 0.00000807 -0.00009324 0.00009294
0.31189290 0.57093692 0.87086910 -0.00027159 -0.00005254 -0.00004950
0.30084255 0.67629677 0.59133708 -0.00011058 -0.00004927 -0.00019030
0.54463059 0.53129828 0.92112797 0.00003447 -0.00004647 -0.00007662
0.36239275 0.37701958 0.85702950 0.00004636 0.00006631 -0.00005207
0.68500793 0.36355096 0.55280858 -0.00006016 0.00005399 0.00005974
0.29277679 0.41227710 0.82475573 0.00002631 0.00014904 0.00007943
0.58532649 0.42565936 0.14791611 0.00011818 -0.00006691 -0.00004735
0.48223668 0.57424062 0.04545454 -0.00000531 -0.00000820 -0.00021061
0.55597007 0.52000886 0.19103844 -0.00005613 -0.00002953 -0.00005741
0.46476337 0.56385303 0.21179457 -0.00000427 -0.00005819 -0.00005447
0.71622169 0.61761749 0.51211637 0.00009386 0.00011755 -0.00017835
0.64834762 0.71971816 0.57211554 0.00001887 0.00019663 -0.00015505
0.72438741 0.35563159 0.76041633 0.00003331 -0.00017279 0.00018219
0.36985207 0.48178396 0.90958130 -0.00003225 -0.00012346 -0.00012943
0.36243364 0.48552772 0.37115896 0.00006873 -0.00003521 0.00000214
0.24031325 0.46752891 0.77013576 -0.00006720 0.00012408 0.00022558
0.37929600 0.28192008 0.53583258 -0.00011731 -0.00001336 0.00017473
0.31527302 0.60964179 0.44901606 -0.00012342 -0.00004301 -0.00022884
0.67321390 0.46500614 0.41275305 -0.00003584 0.00010629 -0.00005620
0.50426012 0.58195907 0.04545454 -0.00001599 0.00001071 -0.00021610
0.56521583 0.30886096 0.87350553 -0.00014109 -0.00003103 0.00017318
0.42234471 0.56596851 0.24928217 -0.00009614 -0.00001232 -0.00012114
0.26396313 0.36902931 0.58827704 0.00002795 -0.00012712 -0.00018425
0.65305048 0.32682428 0.53535801 -0.00008155 0.00001908 0.00010731
0.33670828 0.34228024 0.49866676 -0.00007366 0.00004905 0.00014738
0.58842474 0.48627591 0.28964353 -0.00006152 -0.00002065 0.00002887
0.50025272 0.53068739 0.04545454 0.00000275 0.00000091 -0.00018577
0.55142534 0.38170066 0.09149697 0.00007960 -0.00023129 0.00001920
0.39363742 0.65483242 0.42467889 0.00005568 0.00015598 0.00013961
0.35970083 0.69007355 0.81150353 0.00010277 0.00009343 0.00016492
0.57641441 0.24354792 0.60343933 0.00008878 0.00004931 -0.00015921
0.26515225 0.58728379 0.67513174 0.00008160 -0.00002093 0.00006760
0.31231925 0.60850358 0.49228111 0.00004977 0.00003993 0.00016984
0.67711496 0.42553025 0.40448001 0.00019209 -0.00017543 -0.00003899
0.52553815 0.71884996 0.50723982 0.00008475 -0.00005654 0.00011765
0.23104115 0.50972486 0.73868018 -0.00004248 0.00013211 0.00020201
0.25493464 0.42411932 0.80010855 -0.00019922 0.00002310 0.00019869
0.66421634 0.71001512 0.59166080 0.00021308 0.00009179 0.00010268
0.43803343 0.40130401 0.15353265 -0.00008432 -0.00013584 -0.00008786
0.69339460 0.37205034 0.55807239 -0.00006426 0.00005175 0.00005030
0.25069904 0.52515626 0.69531512 0.00009150 -0.00005152 -0.00004204
0.32425603 0.61990303 0.86744446 -0.00012879 0.00021425 0.00019877
0.57739806 0.26175398 0.62447637 -0.00002496 0.00007637 -0.00000903
0.57736617 0.43212503 0.93522668 -0.00010974 -0.00012488 0.00004231
0.38129246 0.28008640 0.50409335 0.00000048 -0.00019186 -0.00017315
0.43274871 0.38698265 0.08313759 -0.00015420 -0.00021516 0.00000111
0.31124195 0.60996270 0.85970783 -0.00029195 0.00010820 0.00013992
0.44485363 0.51112127 0.04545454 -0.00001832 0.00000426 -0.00019785
0.70854509 0.53730577 0.50302869 -0.00006901 -0.00002725 0.00006572
0.38637990 0.27342525 0.71149838 0.00002215 0.00010680 0.00004660
0.65777254 0.44990289 0.39758071 -0.00004089 0.00009898 -0.00005527
0.71431440 0.48498771 0.85960418 0.00004429 -0.00011922 0.00023376
0.57607704 0.34064656 0.86782354 -0.00007232 0.00004872 -0.00005332
0.63802552 0.69816929 0.59920830 -0.00002546 -0.00006750 0.00009393
0.61614388 0.52784365 0.10605745 0.00018747 0.00006044 -0.00000573
0.71579808 0.56137019 0.47925252 -0.00002711 0.00008868 -0.00014608
0.38762993 0.71683174 0.54176188 -0.00008895 -0.00005328 -0.00013199
0.43230414 0.58644652 0.16664673 -0.00007666 0.00012988 0.00009102
0.33502367 0.69219452 0.57198918 -0.00004122 -0.00009751 -0.00014309
0.59076756 0.69645107 0.80616516 -0.00008882 -0.00001682 -0.00008769
0.71440887 0.42843127 0.80932075 -0.00013161 -0.00006335 0.00003876
0.28225556 0.37947059 0.59805101 0.00008437 0.00000405 -0.00003065
0.60929638 0.41441718 0.37937194 -0.00006221 0.00003775 0.00004303
0.61506653 0.30895826 0.47238502 0.00005393 0.00005152 -0.00016615
0.37001753 0.31110194 0.48527634 0.00013281 -0.00003588 -0.00010401
0.69808745 0.50218916 0.87425375 -0.00000263 -0.00013646 0.00016045
0.56571943 0.69713742 0.86682981 0.00012972 0.00004127 0.00018898
0.63008797 0.52335805 0.32881209 0.00010675 -0.00010445 0.00006242
0.50427192 0.61626929 0.33927059 0.00003477 -0.00007047 0.00006712
0.50183100 0.41998646 0.23054792 0.00002814 0.00005172 -0.00004901
0.69549465 0.67609042 0.55992973 0.00023036 0.00010918 0.00004807
0.45571309 0.74582082 0.51612097 -0.00009619 0.00026180 -0.00008544
0.49639624 0.68991178 0.88390678 -0.00016169 0.00021143 -0.00004879
0.45820227 0.65283871 0.91870612 -0.00018157 0.00018417 0.00012103
0.59779775 0.46825168 0.17333148 0.00002423 -0.00003864 0.00008472
0.58068544 0.50002360 0.04545454 0.00000368 -0.00002881 -0.00021685
0.44530094 0.56443125 0.92531723 -0.00013596 -0.00003767 -0.00009115
0.42639029 0.57481247 0.28311872 0.00003998 0.00008470 0.00006347
0.33950198 0.59302306 0.88031304 0.00014704 0.00009683 0.00013193
0.41282439 0.70851964 0.54624563 -0.00000536 -0.00009911 -0.00000132
0.46692163 0.51463962 0.94568342 -0.00007542 -0.00002816 0.00006557
0.46531707 0.32472149 0.40625739 -0.00013668 -0.00002386 0.00013575
0.73414779 0.40318590 0.59381992 -0.00006192 -0.00006100 0.00012844
0.36964661 0.69446462 0.76313102 0.00002068 -0.00009670 -0.00005738
0.62247950 0.50961578 0.31867537 0.00005024 -0.00011361 0.00007727
0.52173799 0.59360039 0.04545454 0.00003766 0.00005742 -0.00023854
0.47695836 0.50874847 0.04545454 -0.00000428 0.00000455 -0.00018488
0.26821056 0.62500048 0.66400498 0.00006125 0.00006662 0.00015999
0.63462174 0.53386295 0.33361405 0.00015951 -0.00008020 0.00006034
0.61268377 0.37059394 0.88068938 0.00005269 0.00002164 -0.00015299
0.28090096 0.38275248 0.61210054 0.00007599 0.00003300 0.00003517
0.41255075 0.54069954 0.27572486 0.00000661 -0.00008519 -0.00002469
0.66133809 0.28082821 0.69672334 -0.00005907 -0.00008264 0.00021427
0.59725869 0.37361220 0.88187581 -0.00006183 0.00004462 -0.00006673
0.61618656 0.54353964 0.08844232 0.00019507 0.00010895 0.00004193
0.51534963 0.25462282 0.82179105 -0.00006189 -0.00016698 0.00022640
0.49866086 0.52286261 0.94985348 -0.00000862 0.00008586 0.00009262
0.73176223 0.58652741 0.51688558 0.00022170 0.00001072 0.00004744
0.39256373 0.62308770 0.42219424 0.00003646 -0.00008429 0.00003825
0.46764076 0.23365757 0.58220136 -0.00011863 -0.00014119 0.00015221
0.68854713 0.62022400 0.52360761 -0.00009183 -0.00002386 -0.00005950
0.42903858 0.63831276 0.36485055 -0.00011363 -0.00006780 -0.00013168
0.72510749 0.35804260 0.55553508 0.00019350 -0.00018685 0.00003308
0.58705652 0.30845457 0.49206749 -0.00005632 0.00005676 0.00008277
0.46883354 0.26353312 0.76173544 -0.00000828 0.00010662 -0.00001249
0.47479919 0.60713172 0.92764008 0.00015780 -0.00001119 -0.00001790
0.60544711 0.73127490 0.59088165 -0.00009682 -0.00001601 -0.00014820
0.26241761 0.38380253 0.57995033 0.00005942 -0.00009838 -0.00016762
0.55425727 0.74526626 0.65647286 0.00003942 -0.00011339 0.00007390
0.57651526 0.71413708 0.82830769 -0.00007811 0.00019559 -0.00007946
0.32752615 0.67506760 0.81448990 -0.00026581 0.00016251 0.00003687
0.28386104 0.66126806 0.64124697 -0.00000411 0.00010529 0.00019939
0.24750441 0.56385118 0.66256034 0.00004627 -0.00009776 -0.00009887
0.70334220 0.50439107 0.83223599 -0.00004836 0.00005285 -0.00008879
0.45063564 0.45174843 0.04545454 -0.00001824 -0.00000726 -0.00020512
0.61772114 0.62431866 0.41886505 0.00006161 -0.00005633 0.00010279
0.36070541 0.71780354 0.75737172 -0.00021693 0.00002409 -0.00010666
0.74659264 0.56023657 0.64732623 -0.00009681 0.00003594 -0.00007597
0.57407612 0.55623639 0.21864843 0.00006940 0.00007149 -0.00007080
0.45372850 0.52393538 0.17570247 0.00003631 -0.00000822 -0.00000286
0.69150996 0.50942302 0.87955660 -0.00000881 -0.00011375 0.00014998
0.28232011 0.42950949 0.80232680 0.00007022 0.00010651 0.00001597
0.24816896 0.61979306 0.66487050 -0.00010505 0.00022583 0.00019740
0.55679554 0.48649684 0.94554514 0.00010929 0.00010228 0.00012514
0.61912394 0.74472451 0.59437627 0.00004317 0.00022621 -0.00010529
0.40041399 0.62416047 0.41673678 0.00002431 -0.00008755 0.00003459
0.23390305 0.57310969 0.69608057 -0.00007428 0.00015459 0.00018737
0.66413546 0.56095111 0.87593466 -0.00002536 0.00006511 -0.00014395
0.61003000 0.47774380 0.15307991 0.00015674 -0.00001572 -0.00006718
0.26320946 0.40918520 0.60565758 0.00006817 0.00005054 0.00011779
0.73918790 0.36619741 0.75407612 0.00027438 -0.00010698 0.00002701
0.48143396 0.62406951 0.36031586 0.00003054 -0.00006190 0.00007106
0.28187734 0.42759216 0.77895331 0.00007163 0.00002305 -0.00003112
0.71637535 0.53495115 0.46325833 -0.00001169 0.00009522 -0.00015536
0.59482223 0.39064276 0.92089248 -0.00010478 -0.00005823 0.00013563
0.62027764 0.40358502 0.89969730 0.00010983 0.00004707 -0.00014651
0.53790402 0.29251042 0.81820917 -0.00002790 0.00008517 -0.00005286
0.34422940 0.62845606 0.85358578 0.00016165 0.00003251 0.00006725
0.51282316 0.58888203 0.20110878 0.00005868 0.00006698 0.00002574
0.37496951 0.46210602 0.07836019 -0.00025976 -0.00008343 -0.00002180
0.33956838 0.56787682 0.86332518 0.00006176 -0.00004723 -0.00009054
0.39301649 0.53643942 0.28862348 -0.00003190 -0.00008381 -0.00008765
0.69996572 0.54467601 0.48927465 -0.00008356 -0.00000323 0.00001194
0.54522973 0.76744068 0.66507137 0.00015859 0.00007736 0.00021554
0.31864765 0.63185436 0.45909458 -0.00016471 0.00021134 0.00001315
0.58478647 0.65865159 0.45046976 -0.00001608 -0.00005490 0.00007271
0.59643322 0.56993049 0.90389651 -0.00002485 -0.00003402 -0.00008802
0.59737599 0.24397066 0.65373009 -0.00012212 -0.00008966 0.00017993
0.42700124 0.60033149 0.04545454 -0.00018410 0.00005761 -0.00029815
0.46147239 0.73298591 0.54272729 0.00005223 0.00000617 0.00016797
0.49853995 0.39048639 0.24669211 -0.00001082 -0.00017924 -0.00011286
0.58753747 0.56017566 0.90960950 0.00001520 -0.00004394 -0.00007184
0.48493859 0.47856477 0.17216328 0.00000981 0.00000821 -0.00001288
0.58850384 0.46190965 0.04545454 0.00002388 -0.00002861 -0.00024405
0.52217621 0.56841314 0.20384069 0.00001237 -0.00003963 -0.00002087
0.72028822 0.60910451 0.50863713 0.00014405 0.00010921 -0.00016231
0.56391031 0.50035000 0.20131879 -0.00003252 -0.00000740 -0.00002946
0.54664791 0.30074432 0.85284758 -0.00010791 0.00007843 0.00006582
0.37723869 0.49541077 0.10476377 -0.00020465 0.00001710 0.00001393
0.31166017 0.39735207 0.43174002 -0.00026980 -0.00007843 -0.00003682
0.41695181 0.23573765 0.74466133 -0.00014373 -0.00019703 0.00021452
0.49421436 0.38234341 0.16182475 -0.00003085 -0.00019437 0.00001968
0.36133361 0.49850088 0.33995792 0.00003451 -0.00010872 -0.00005866
0.45944592 0.55475277 0.25291502 0.00001545 -0.00003650 -0.00000390
0.73225677 0.47662011 0.81453359 0.00010015 0.00014160 -0.00014569
0.33485457 0.59416497 0.84479725 0.00004435 -0.00005546 -0.00010687
0.44634005 0.45859683 0.19469856 0.00003659 0.00002925 -0.00002580
0.40891793 0.74354535 0.54615748 -0.00012083 0.00025523 -0.00003237
0.72409743 0.61469287 0.71915770 -0.00003228 -0.00009979 0.00010152
0.28182736 0.37392312 0.62209719 0.00005697 0.00006937 0.00004702
0.44773829 0.37813598 0.93352932 -0.00016203 0.00001583 0.00017113
0.50532842 0.44719917 0.17248328 -0.00000862 0.00001361 -0.00000115
0.27239522 0.66342086 0.63286853 -0.00020960 0.00022019 0.00004017
0.55477363 0.67592400 0.85298395 0.00002033 -0.00010404 -0.00002495
0.46806261 0.42385295 0.04545454 -0.00000041 0.00000727 -0.00021587
0.31383660 0.58259726 0.48396724 0.00006135 -0.00008494 0.00001215
0.32990077 0.47659743 0.36806157 -0.00015516 -0.00008352 -0.00017843
0.70531315 0.34716678 0.70902097 -0.00002512 0.00009449 -0.00009664
0.64522207 0.32035318 0.53072870 -0.00006989 -0.00000490 0.00011717
0.75148922 0.62044853 0.70482266 0.00023752 0.00008472 0.00009680
0.32715157 0.63303435 0.44351858 -0.00022922 0.00008553 -0.00020309
0.75878763 0.51978523 0.61981261 -0.00006248 0.00004408 -0.00013619
0.57540071 0.55153716 0.91692877 0.00006015 -0.00003679 -0.00008278
0.72329372 0.59511954 0.53279340 0.00011128 -0.00004063 0.00013070
0.32812616 0.27648261 0.68376654 -0.00020064 -0.00008225 0.00020384
0.62446684 0.46426064 0.05719856 0.00027640 -0.00013051 -0.00004321
0.60241520 0.48652408 0.29732105 -0.00001357 -0.00006644 0.00007112
0.59527862 0.31046739 0.46344110 0.00005721 0.00006881 -0.00011364
0.46684983 0.37068394 0.06994624 -0.00010609 -0.00028851 -0.00004863
0.25810385 0.46599162 0.57615298 0.00004992 0.00004227 0.00009856
0.48018211 0.58821839 0.22915879 0.00003184 0.00009161 0.00001196
0.74123067 0.39742297 0.55547047 0.00012476 0.00004770 -0.00019117
0.51814425 0.55283087 0.18103902 -0.00003965 -0.00005424 -0.00002534
0.47800472 0.60981458 0.04545454 0.00000064 -0.00015331 -0.00026474
0.40693694 0.40144131 0.32363829 -0.00016878 0.00001964 0.00007199
0.59680051 0.51981705 0.17577522 0.00002375 0.00000607 0.00004389
0.54481512 0.69522738 0.48615459 0.00000530 -0.00007487 0.00004695
0.52231622 0.60679263 0.13668846 0.00002136 0.00013824 -0.00000511
0.53639209 0.52283353 0.92261720 0.00002266 -0.00004280 -0.00007383
0.40969792 0.46275514 0.04545454 -0.00006532 0.00003456 -0.00024037
0.42978042 0.38637626 0.35497203 -0.00001502 0.00006266 0.00006850
0.52867186 0.37315309 0.08872962 0.00006085 -0.00024440 0.00000368
0.58564562 0.55078167 0.04545454 0.00001786 0.00003532 -0.00024529
0.36756110 0.28392377 0.67726177 0.00006924 0.00007759 -0.00002571
0.33012170 0.60651535 0.44551593 -0.00003381 -0.00011904 -0.00010858
0.63773638 0.56124747 0.33526137 0.00021941 0.00007217 -0.00012523
0.25505465 0.63390172 0.65522289 -0.00013581 0.00018934 0.00017228
0.42248291 0.43841070 0.25728244 0.00007979 -0.00003655 -0.00006048
0.42977408 0.64210379 0.40844563 0.00007984 -0.00002836 0.00009350
0.47903115 0.74057341 0.49888861 -0.00009150 0.00014481 -0.00018965
0.33015350 0.42970860 0.39927167 0.00002410 -0.00012463 -0.00015843
0.54059225 0.39197916 0.13907947 0.00004709 -0.00013195 0.00001259
0.58658195 0.37920144 0.32629111 0.00008306 -0.00020435 -0.00004910
0.62764418 0.50723022 0.30453035 0.00017327 -0.00009365 0.00005445
0.41529995 0.38339889 0.34290710 -0.00013598 0.00002836 0.00010231
0.50870031 0.27353254 0.78978091 -0.00000789 0.00010003 -0.00005941
0.23158023 0.45899320 0.73951745 -0.00015627 -0.00017802 -0.00010801
0.33295175 0.65532243 0.80088222 -0.00003768 -0.00007625 -0.00016144
0.49670902 0.31349748 0.43388376 -0.00007684 0.00002045 0.00012729
0.37698597 0.65525335 0.41970417 -0.00006061 0.00024547 -0.00000637
0.56487125 0.49403706 0.19426946 -0.00003811 -0.00001294 -0.00004110
0.39144188 0.72287375 0.77507955 0.00009656 0.00002064 0.00016250
0.61428654 0.48218852 0.27374119 0.00016054 -0.00010566 -0.00001430
0.32954711 0.70731592 0.57484478 -0.00014194 0.00012628 -0.00018126
0.31407207 0.39130551 0.85027295 0.00000542 0.00016209 0.00015210
0.63112706 0.24591254 0.65740478 0.00008029 -0.00028152 0.00004527
0.56100655 0.54111862 0.94390690 0.00012337 -0.00008996 0.00012601
0.50812572 0.62373501 0.08307580 0.00002498 0.00023837 0.00003825
0.35391974 0.72458470 0.58474058 -0.00002546 0.00023725 0.00009236
0.51821971 0.53617853 0.04545454 0.00000890 0.00000824 -0.00018864
0.31459117 0.55505270 0.89166796 -0.00031246 -0.00000293 0.00008715
0.53651392 0.57486063 0.04545454 0.00002670 0.00005210 -0.00021802
0.51778877 0.37791231 0.11145036 0.00001776 -0.00019943 0.00000571
0.56874865 0.44085079 0.04545454 0.00001144 -0.00002961 -0.00023119
0.68080693 0.51174039 0.87760657 -0.00007062 -0.00011707 0.00002618
0.58403003 0.35993356 0.88686687 -0.00010729 0.00005637 -0.00005203
0.40447322 0.55915737 0.13305561 -0.00012410 0.00007137 0.00000180
0.52880371 0.61371469 0.10719022 0.00005405 0.00018121 0.00001179
0.33822286 0.63993096 0.43707564 -0.00016742 0.00017553 -0.00016206
0.54323143 0.23898865 0.58567512 0.00008730 0.00001919 -0.00015098
0.42825583 0.62477684 0.38582125 0.00000402 -0.00009422 -0.00000279
0.70592684 0.54857528 0.47642332 -0.00009062 0.00004094 -0.00006588
0.60740268 0.61074007 0.37065983 -0.00011003 0.00005495 -0.00009850
0.70214301 0.48755869 0.82549667 -0.00008138 0.00001367 -0.00007273
0.21942349 0.52373534 0.70121437 -0.00026264 -0.00009516 -0.00011218
0.25067994 0.53491211 0.71361029 0.00010232 0.00000784 0.00006515
0.64732212 0.29387230 0.66355407 -0.00002248 0.00006739 -0.00003459
0.76928890 0.44928652 0.61612970 0.00012676 -0.00011936 0.00016234
0.49496531 0.25372642 0.59210533 0.00000241 0.00009199 0.00004648
0.36001268 0.72850758 0.57703483 -0.00006021 0.00025591 0.00007340
0.70926332 0.47020537 0.45748726 0.00008259 -0.00012950 0.00013191
0.38145429 0.72611475 0.54478651 -0.00012536 0.00006268 -0.00019287
0.73841065 0.56871319 0.66134214 -0.00011686 0.00000144 -0.00002133
0.24208240 0.51814967 0.53699261 -0.00025718 0.00006897 0.00011362
0.37834236 0.24633436 0.71790856 -0.00020493 -0.00013580 0.00016277
0.43773249 0.50148278 0.22372316 0.00003562 -0.00000752 -0.00001619
0.27388981 0.55877650 0.48864463 -0.00009350 -0.00009535 -0.00018906
0.57678890 0.48117211 0.18971114 -0.00006296 -0.00002036 -0.00002201
0.35976812 0.72232646 0.77801239 -0.00017153 0.00020796 0.00007891
0.48437679 0.55612004 0.93184471 0.00008223 0.00002372 -0.00006025
0.22842012 0.55571455 0.67323619 -0.00015378 -0.00005542 -0.00015451
0.48283216 0.62150586 0.04545454 -0.00001644 0.00015185 -0.00025924
0.55020350 0.56201839 0.26947469 0.00000120 -0.00005073 0.00002598
0.59655410 0.44153625 0.14418325 0.00010761 -0.00007366 -0.00002590
0.57598621 0.28492746 0.84240729 0.00021583 -0.00013148 -0.00007793
0.33057350 0.61304462 0.43982941 -0.00009926 -0.00007550 -0.00016680
0.44335812 0.65243685 0.35828760 -0.00009237 0.00016475 -0.00012070
0.52097708 0.24487613 0.57546568 0.00005889 0.00007714 -0.00010423
0.66033983 0.66521639 0.55972427 -0.00007339 -0.00007827 -0.00000784
0.51065850 0.27395889 0.81963009 -0.00012225 0.00010088 0.00007525
0.23551400 0.58918208 0.65571922 -0.00021380 -0.00002105 -0.00015252
0.25042269 0.41552722 0.60196477 -0.00004481 0.00004387 0.00020128
0.72475290 0.59570861 0.50242877 0.00016292 0.00011354 -0.00015725
0.38326797 0.50410831 0.12532355 -0.00017815 0.00000262 -0.00001231
0.44088259 0.23706132 0.76442826 -0.00014413 -0.00018577 0.00016313
0.34825045 0.50752932 0.33668053 -0.00013838 -0.00009982 -0.00015421
0.43217778 0.75529569 0.69501781 -0.00010231 -0.00003329 -0.00015084
0.47278547 0.77843010 0.68592113 -0.00005864 0.00025764 0.00000064
0.52066344 0.66298449 0.87804842 0.00003494 -0.00009738 -0.00001676
0.37934965 0.64358932 0.44281766 0.00006107 0.00006710 0.00012719
0.54573429 0.39543656 0.16815132 0.00003916 -0.00013775 0.00009714
0.40797150 0.63866007 0.42473799 0.00005699 -0.00002455 0.00009910
0.59581047 0.50158554 0.04545454 0.00006091 -0.00003665 -0.00023913
0.71832907 0.39747116 0.78923637 -0.00009627 -0.00009032 0.00010620
0.53297383 0.39757937 0.04545454 0.00002834 -0.00005977 -0.00025182
0.69195271 0.44126442 0.42891449 0.00014873 -0.00017628 0.00004298
0.24707621 0.47406277 0.53487802 -0.00004978 -0.00012472 -0.00019321
0.50790024 0.56845593 0.04545454 -0.00000040 0.00000027 -0.00020414
0.25731200 0.42884129 0.75890082 0.00002593 -0.00012619 -0.00010971
0.46171781 0.53003287 0.94636524 -0.00016395 -0.00002191 0.00009458
0.62439960 0.54867435 0.35895309 -0.00000041 -0.00008861 0.00009614
0.45136932 0.62570053 0.90313739 -0.00005928 -0.00000780 -0.00011874
0.44041261 0.39368287 0.11692143 -0.00006454 -0.00017303 0.00002631
0.48238489 0.75161558 0.66689140 -0.00007183 -0.00007127 -0.00006510
0.45762315 0.75909495 0.67838454 -0.00010170 -0.00004029 -0.00012267
0.75474572 0.55831921 0.64159966 -0.00006459 0.00007683 -0.00013562
0.59590775 0.41335171 0.90244466 -0.00005616 0.00000243 -0.00007752
0.59158391 0.42366749 0.04545454 -0.00005088 0.00001265 -0.00033858
0.24798714 0.54272783 0.67822450 0.00006648 -0.00006417 -0.00007524
0.50807846 0.33272088 0.40783012 0.00006443 0.00006138 -0.00001449
0.37657776 0.31225744 0.52357119 0.00002724 0.00005558 0.00006601
0.59732234 0.71559709 0.81833923 -0.00002319 0.00024313 -0.00007172
0.57812625 0.71065241 0.85005659 0.00008722 0.00023249 0.00014559
0.27031153 0.44979471 0.76533198 0.00008873 0.00001409 -0.00001665
0.46142146 0.62955791 0.93544585 0.00003175 0.00014334 0.00028105
0.58456010 0.63866824 0.41559041 -0.00007976 -0.00004008 0.00000395
0.54429692 0.72715205 0.47325960 0.00011499 0.00023054 -0.00005201
0.45308027 0.25405642 0.53833354 0.00008039 -0.00000286 -0.00016556
0.53981131 0.55334628 0.23583901 -0.00003038 -0.00002340 -0.00002865
0.72647655 0.48868781 0.85127389 0.00021801 0.00000089 0.00016114
0.56333482 0.74314713 0.65126634 0.00002791 -0.00010226 0.00007597
0.68148327 0.64919585 0.56783998 -0.00001763 -0.00007066 0.00007578
0.61913943 0.24259150 0.65636110 0.00005118 -0.00023965 0.00013150
0.58403462 0.46355787 0.94515151 0.00015684 0.00008108 0.00019217
0.47113723 0.34956050 0.36346322 0.00009655 0.00002681 -0.00006611
0.56067294 0.69452637 0.43907845 -0.00010255 0.00004249 -0.00016240
0.34384033 0.39805302 0.43613380 0.00011856 -0.00000351 -0.00001106
0.61286372 0.67964321 0.81096888 -0.00002939 -0.00011392 -0.00000917
0.77930111 0.47657380 0.62029171 0.00027601 -0.00005177 0.00002867
0.46855265 0.31642666 0.40090266 -0.00017369 -0.00013488 0.00008135
0.45214936 0.38389710 0.90735114 -0.00005155 0.00002871 -0.00006762
0.39325923 0.54034495 0.15921284 -0.00018060 0.00006530 0.00001670
0.62650055 0.39807117 0.34986731 0.00015939 -0.00009090 -0.00014197
0.37350312 0.32584155 0.49606943 0.00009535 0.00004935 0.00001998
0.39644295 0.24043235 0.69887793 0.00005426 -0.00019258 -0.00014536
0.23707950 0.50456923 0.74351120 0.00002577 0.00011403 0.00018070
0.59683865 0.66804373 0.45036882 0.00009075 -0.00003524 0.00010894
0.69822925 0.62385774 0.51524734 -0.00008743 0.00002589 -0.00014306
0.34026018 0.61400104 0.43561381 -0.00003620 -0.00010305 -0.00013079
0.52001250 0.43911982 0.18582554 -0.00002098 0.00003822 -0.00003470
0.34487307 0.63236982 0.46645024 0.00005969 0.00009824 0.00012868
0.37318128 0.71810359 0.78785634 0.00005698 0.00012482 0.00021003
0.61103553 0.52950734 0.12191888 0.00016215 0.00005456 0.00000107
0.60259253 0.65105140 0.39882714 -0.00001321 0.00012988 -0.00016077
0.50327557 0.23054565 0.60306841 -0.00011316 -0.00007665 0.00017782
0.71654350 0.32005951 0.72334784 0.00019798 -0.00019974 0.00006607
0.37962237 0.70375222 0.75377429 0.00000531 -0.00011463 -0.00004329
0.41239986 0.49939907 0.18342456 0.00000016 -0.00003731 -0.00002208
0.43670428 0.62571144 0.38896769 0.00001643 -0.00007753 0.00002641
0.55699551 0.56264389 0.17353149 -0.00003052 -0.00003087 0.00000453
0.27970365 0.53877038 0.50235420 0.00005611 -0.00011704 -0.00005811
0.48809326 0.36701110 0.06718161 -0.00000893 -0.00030164 0.00001831
0.58990484 0.68213964 0.45799997 0.00010459 0.00002610 0.00010812
0.65983438 0.33136082 0.53965360 -0.00007893 0.00001160 0.00010393
