0.71232694 0.46917900 0.45781279 0.00000055 -0.00000724 -0.00002999
0.80504566 0.59284794 0.49897176 0.00000893 0.00001389 -0.00003489
0.73334050 0.47366780 0.46009585 0.00000744 -0.00000870 -0.00002782
0.87391639 0.48635614 0.50280267 0.00001303 -0.00000655 -0.00002616
0.74431902 0.58566839 0.48079276 0.00001010 0.00000148 -0.00004606
0.83005750 0.44076937 0.49445385 0.00001303 -0.00000389 -0.00002761
0.67208982 0.50638878 0.44777602 -0.00000009 0.00001038 -0.00003216
0.67683429 0.54353118 0.46100587 0.00000667 0.00000878 -0.00004846
0.67879790 0.49989992 0.44746393 0.00000755 -0.00000608 -0.00003594
0.40626258 0.48483565 0.48383471 -0.00000814 0.00000413 0.00003792
0.79705173 0.44494694 0.49146557 -0.00000932 0.00000125 0.00003131
0.88744730 0.52150494 0.51053548 0.00001626 0.00000554 -0.00003836
0.82921034 0.51742285 0.48434520 0.00001329 0.00000560 -0.00003072
0.70887548 0.48995045 0.46295586 -0.00000438 0.00001134 0.00002876
0.91360849 0.51806438 0.53214866 -0.00001118 -0.00001290 0.00003393
0.91468406 0.49015066 0.53058809 -0.00001755 0.00001764 0.00004158
0.70865893 0.56814450 0.48011756 0.00001994 -0.00003912 0.00004732
0.07149105 0.51775044 0.44583145 -0.00001962 0.00001272 -0.00004563
0.71206039 0.52540040 0.46638459 -0.00000292 -0.00000126 0.00003079
0.22620936 0.48638803 0.45983380 -0.00000529 0.00000096 0.00003419
0.51950073 0.52449679 0.48034051 -0.00000369 0.00003460 -0.00004832
0.84158117 0.47396442 0.50102103 -0.00001335 0.00000728 0.00002963
0.79639113 0.42094970 0.49889535 -0.00000568 0.00002110 0.00002796
0.57404780 0.50363618 0.48455179 0.00000487 0.00000885 0.00003301
0.32065243 0.50608027 0.46417066 0.00000364 0.00000071 -0.00003508
0.88932270 0.43311211 0.52736777 0.00002547 -0.00001921 -0.00004720
0.77610737 0.58559924 0.48663011 0.00000781 0.00001881 -0.00003298
0.14621088 0.46043891 0.45239860 -0.00000144 -0.00002266 0.00005827
0.67931658 0.55026668 0.47315732 -0.00000494 -0.00001154 0.00006125
0.13624871 0.49118891 0.45281351 -0.00000424 -0.00000116 0.00003891
0.04791326 0.50024480 0.44681421 -0.00002097 -0.00001258 -0.00010055
0.04974408 0.49688977 0.45641878 0.00001527 -0.00001761 0.00006009
0.83212680 0.59592086 0.51719815 0.00000441 0.00004130 0.00001079
0.67327088 0.46493226 0.46762392 0.00001555 0.00003509 0.00003625
0.89442211 0.51828825 0.52271879 -0.00000679 -0.00001140 0.00003307
0.85573274 0.58278382 0.51633000 0.00001556 0.00001837 -0.00005192
0.50616807 0.48800594 0.48041514 0.00000767 0.00000262 -0.00004074
0.86792791 0.58130246 0.52187896 0.00003636 0.00004132 -0.00006560
0.71866202 0.46746466 0.45911130 0.00000340 -0.00000787 -0.00002764
0.19294150 0.46178472 0.44558030 -0.00000502 -0.00003374 -0.00005852
0.33274844 0.49120259 0.47492990 -0.00000345 -0.00000153 0.00003611
0.85776287 0.56220800 0.51755488 -0.00001486 -0.00001411 0.00003310
0.25515586 0.50529772 0.45432132 0.00000591 0.00000407 -0.00003244
0.79966331 0.58103853 0.50088090 -0.00000909 -0.00000862 0.00003966
0.89331108 0.53388387 0.51611531 0.00002292 0.00000941 -0.00003643
0.16455461 0.48825341 0.44243732 -0.00000179 0.00000052 -0.00002826
0.78591937 0.51693785 0.48281923 -0.00000888 -0.00000100 0.00002792
0.70168781 0.52059770 0.46401507 -0.00000447 0.00000103 0.00002785
0.81342268 0.45595554 0.48459908 0.00001684 -0.00001046 -0.00002378
0.85576463 0.53487849 0.49935120 0.00001342 0.00000035 -0.00002555
0.80338776 0.57037389 0.48766381 0.00001443 0.00001472 -0.00003095
0.20745979 0.51526356 0.44743478 0.00000088 0.00000094 -0.00003542
0.35426697 0.53180826 0.47525385 -0.00001038 0.00004248 0.00003516
0.13743621 0.47797456 0.45276439 0.00000200 -0.00000671 0.00003601
0.27705386 0.51706797 0.46707612 -0.00000395 0.00001166 0.00003558
0.20598659 0.49507535 0.44723004 0.00000423 -0.00000376 -0.00002800
0.72173953 0.49064931 0.45491916 0.00000037 -0.00000963 -0.00002820
0.65678614 0.52777994 0.45589826 -0.00000439 0.00001700 -0.00003971
0.33407605 0.52000624 0.47511286 -0.00000900 0.00001016 0.00002944
0.35781038 0.51996070 0.46938288 0.00000248 0.00000913 -0.00003568
0.67326725 0.54237920 0.46069735 0.00000245 0.00001479 -0.00005612
0.89964068 0.46232432 0.53114319 -0.00001298 0.00001323 0.00002861
0.87478715 0.53248161 0.50710768 0.00001601 0.00000434 -0.00002841
0.68158424 0.53956836 0.46900794 0.00000972 -0.00001471 0.00003592
0.75992745 0.50934976 0.47494265 -0.00001097 0.00000045 0.00002556
0.69403142 0.49366400 0.46029243 -0.00000954 0.00000819 0.00003315
0.76956111 0.54228640 0.47084787 0.00000622 0.00001092 -0.00002381
0.49553528 0.52119005 0.48046422 0.00000248 -0.00000853 -0.00005502
0.73012197 0.44024250 0.47732398 0.00000201 0.00000874 0.00003358
0.17431386 0.51409882 0.45322755 -0.00000353 -0.00000346 0.00003342
0.73751265 0.54790628 0.46549916 0.00000496 0.00001041 -0.00002861
0.37216121 0.49726287 0.48001477 -0.00000699 -0.00000012 0.00003612
0.86022609 0.53192204 0.50060874 0.00001548 0.00000121 -0.00002506
0.18594761 0.50826597 0.45455152 -0.00001084 0.00000458 0.00002956
0.31808001 0.47078231 0.46379209 0.00000960 0.00000066 -0.00007490
0.15091898 0.47055754 0.44252196 -0.00000350 0.00000011 -0.00003383
0.73864824 0.46389580 0.47274148 -0.00000586 0.00000217 0.00002451
0.09972414 0.53520608 0.45433587 -0.00000747 -0.00001823 0.00004920
0.91847390 0.51446277 0.52416199 0.00001972 0.00001477 -0.00003095
0.34626305 0.49162847 0.47673073 -0.00000591 0.00000019 0.00003650
0.66487384 0.48097286 0.45227301 -0.00000807 -0.00001326 -0.00003680
0.08251513 0.51571941 0.44537193 -0.00000461 0.00000113 -0.00003571
0.89481431 0.46969676 0.52535677 -0.00000893 0.00000817 0.00003204
0.87532407 0.46303135 0.50827879 0.00001527 -0.00000461 -0.00003348
0.80019379 0.41443899 0.50330317 -0.00000983 -0.00000048 0.00004275
0.09566666 0.48001379 0.45450512 -0.00000771 0.00000956 0.00003649
0.71349990 0.48566917 0.46440816 -0.00000337 0.00000481 0.00002904
0.61402571 0.51964319 0.47321919 0.00001213 0.00003204 0.00005848
0.65363598 0.46895972 0.46314421 -0.00002037 -0.00002079 0.00001047
0.39850795 0.52421111 0.47429663 -0.00000191 -0.00001239 -0.00004604
0.72370774 0.52528489 0.46806523 -0.00000513 -0.00000380 0.00002966
0.90879482 0.50309926 0.52651423 -0.00000843 -0.00000529 0.00003910
0.85194188 0.47945872 0.49456394 0.00001421 -0.00000688 -0.00002357
0.83369732 0.40454504 0.51180482 0.00004285 -0.00004092 -0.00005782
0.92734420 0.48529971 0.53956115 -0.00001577 0.00001449 0.00003367
0.88793415 0.54978532 0.52915400 -0.00001709 -0.00001456 0.00004037
0.32199734 0.48552811 0.46436900 0.00000296 -0.00000009 -0.00003630
0.30095103 0.47049025 0.46126425 0.00001313 0.00000539 -0.00004811
0.56936342 0.49631375 0.47496086 -0.00000501 -0.00000507 -0.00004119
0.46889192 0.47642225 0.47985184 0.00000162 0.00000420 -0.00005979
0.22460420 0.49038273 0.44981614 0.00000101 -0.00000022 -0.00003010
0.48329738 0.51883787 0.48932445 -0.00000637 -0.00001862 0.00005436
0.78719425 0.50132489 0.48320502 -0.00000724 -0.00000135 0.00002874
0.17580345 0.49140456 0.45339227 -0.00000798 -0.00000344 0.00003327
0.76803517 0.52749693 0.46691230 0.00000609 0.00000799 -0.00002630
0.14598067 0.51973325 0.44272763 -0.00000638 0.00000759 -0.00003624
0.09991614 0.48567188 0.44464669 -0.00000999 0.00000226 -0.00003354
0.54796040 0.51912540 0.48803324 0.00001330 -0.00000492 0.00005889
0.65149939 0.52915126 0.46182841 -0.00001250 0.00002730 -0.00000061
0.08829968 0.46884230 0.45481178 -0.00001201 0.00000391 0.00004135
0.89852601 0.52427751 0.51612079 0.00002219 0.00000759 -0.00003595
0.11936545 0.52817488 0.44383684 -0.00001187 0.00000578 -0.00004137
0.74749845 0.49414533 0.45907488 0.00000755 -0.00000011 -0.00003261
0.69593871 0.52774441 0.45493189 0.00000488 0.00000580 -0.00003490
0.12133733 0.54211444 0.45337313 -0.00000685 0.00003626 0.00005870
0.42556632 0.47134650 0.48000017 0.00001419 -0.00004067 -0.00003127
0.63196087 0.48520961 0.45369980 -0.00002388 -0.00000023 -0.00003691
0.48854777 0.48199931 0.48049611 -0.00000516 0.00002076 -0.00005661
0.34471980 0.52153581 0.46758571 0.00000550 -0.00000344 -0.00004478
0.17828034 0.53959477 0.44517630 0.00000716 0.00003622 -0.00003788
0.72666782 0.47081420 0.45962816 0.00000337 -0.00000666 -0.00002776
0.91207606 0.51272565 0.52992016 -0.00001092 -0.00001275 0.00003732
0.15217653 0.46209320 0.45215017 0.00001649 -0.00000207 0.00005450
0.07293968 0.47380155 0.44577143 -0.00000076 -0.00000567 -0.00004565
0.45377851 0.52740502 0.48617056 -0.00000442 0.00004225 0.00003002
0.60604179 0.50083899 0.47660968 0.00000946 0.00000075 0.00003415
0.56667536 0.47759056 0.48507771 0.00000307 -0.00003606 0.00005784
0.08766998 0.52563977 0.44515717 -0.00000748 0.00000992 -0.00003973
0.78524876 0.55180091 0.47739044 0.00000515 0.00001021 -0.00002889
0.14493605 0.51163191 0.45245227 -0.00000301 0.00000224 0.00003305
0.75033659 0.47075868 0.47336847 -0.00000539 0.00000676 0.00002541
0.40291667 0.47111538 0.47478524 0.00000475 -0.00003565 -0.00006539
0.72743767 0.58645916 0.48905966 -0.00003515 0.00002060 0.00005562
0.80921960 0.58483583 0.50622952 -0.00001774 -0.00000547 0.00003636
0.11923626 0.51619625 0.44384229 -0.00001145 0.00000373 -0.00003072
0.93629718 0.48095107 0.54697454 -0.00002870 0.00001474 0.00004359
0.83700591 0.56327718 0.50780284 -0.00001502 -0.00000669 0.00003290
0.27317384 0.53259629 0.45705575 0.00001854 0.00001419 -0.00005837
0.08971921 0.52493453 0.45475265 -0.00000888 0.00000801 0.00004118
0.80137223 0.52444679 0.47557598 0.00001088 0.00000840 -0.00003577
0.27167243 0.53546268 0.46480855 0.00000143 0.00004489 0.00003882
0.76060992 0.59877080 0.49513817 0.00000934 0.00004631 0.00000160
0.67364126 0.45712668 0.46087113 -0.00000469 -0.00001428 -0.00004909
0.18702316 0.53109944 0.45468801 -0.00001329 -0.00000969 0.00003854
0.70248586 0.46036521 0.46846014 0.00000098 0.00001264 0.00003067
0.81393957 0.54067492 0.48397669 0.00000823 0.00000899 -0.00003079
0.83506322 0.50609034 0.48561007 0.00001129 -0.00000203 -0.00003044
0.95320410 0.50080168 0.54714650 0.00004560 0.00000468 -0.00006185
0.86364573 0.41588944 0.52887648 0.00000666 -0.00003361 0.00003945
0.77710742 0.60135597 0.50430411 -0.00002509 0.00002452 0.00005213
0.49758634 0.47453314 0.48749089 0.00000010 -0.00003376 0.00002555
0.80583185 0.44025251 0.48584750 0.00001258 -0.00000668 -0.00002730
0.07782066 0.49573961 0.45524856 -0.00000116 0.00000043 0.00003643
0.68569267 0.53991055 0.46898884 -0.00000831 0.00000115 0.00004252
0.72349668 0.49506986 0.45430222 -0.00000026 -0.00000942 -0.00002734
0.85513854 0.43649989 0.51677680 -0.00001442 0.00001504 0.00004186
0.38214159 0.48765379 0.48118857 -0.00000398 -0.00000012 0.00003544
0.11662104 0.46998888 0.44395059 -0.00000221 -0.00000364 -0.00003494
0.94083154 0.49922928 0.54667151 -0.00001945 -0.00000251 0.00006638
0.75146949 0.54737031 0.46804795 0.00000696 0.00001151 -0.00002812
0.80317938 0.49945313 0.48804873 -0.00000528 -0.00000099 0.00002942
0.76534992 0.51676768 0.47658604 -0.00001079 0.00000411 0.00002912
0.76004487 0.42424461 0.48812878 -0.00000621 0.00001751 0.00003627
0.65928036 0.53619152 0.46213236 -0.00002432 0.00003123 -0.00002565
0.78759819 0.44007143 0.48983130 -0.00000762 0.00000248 0.00003507
0.90083545 0.55026215 0.53705692 -0.00002973 -0.00004026 0.00002876
0.28684497 0.52638042 0.45912766 -0.00000470 -0.00000637 -0.00003968
0.50295687 0.49828383 0.48042968 -0.00000062 0.00000137 -0.00003920
0.72953415 0.57722223 0.48507863 0.00000460 -0.00003901 0.00003551
0.36699542 0.47397175 0.47054848 0.00001831 0.00001551 -0.00005596
0.74452108 0.57258695 0.48439795 -0.00000212 -0.00000560 0.00004205
0.18364635 0.46729809 0.44442740 -0.00001451 0.00001517 -0.00005066
0.81939381 0.55396473 0.48921800 0.00001046 0.00001183 -0.00002994
0.84760237 0.42928395 0.51636004 -0.00000767 0.00001044 0.00003752
0.53853875 0.52365422 0.48439252 -0.00000036 0.00003821 0.00001688
0.12447939 0.47054118 0.44362390 -0.00000743 0.00000502 -0.00003675
0.78549898 0.57181525 0.49217442 -0.00000587 -0.00000929 0.00003516
0.59098750 0.51779139 0.48100114 0.00001202 0.00001517 0.00006383
0.82621664 0.54087234 0.48857924 0.00000782 0.00000762 -0.00002765
0.71010119 0.57647967 0.47403178 -0.00000616 0.00004999 -0.00005816
0.33757937 0.50108558 0.46659383 0.00000356 0.00000357 -0.00003274
0.69516981 0.53612423 0.46724355 0.00000288 -0.00001036 0.00004138
0.82620937 0.55934805 0.49305621 0.00000889 0.00000665 -0.00003124
0.19287691 0.49860686 0.45542783 -0.00000866 -0.00000259 0.00003564
0.91561949 0.45572808 0.54355490 -0.00001781 0.00003044 0.00003812
0.78847814 0.56610167 0.48196840 0.00000917 0.00000862 -0.00003105
0.42516413 0.49415174 0.48568648 0.00000069 0.00000461 0.00004260
0.08815593 0.49917197 0.45481816 -0.00000435 0.00000308 0.00003842
0.59163630 0.47869527 0.48030412 0.00001088 -0.00003948 0.00005892
0.84908193 0.48189741 0.49280503 0.00001428 -0.00000662 -0.00002151
0.73879743 0.42770243 0.48360994 -0.00000717 0.00001065 0.00004372
0.63532770 0.48062801 0.46102673 -0.00000862 -0.00000711 0.00003183
0.30970755 0.52802747 0.47174785 -0.00000240 -0.00001540 0.00004809
0.90278459 0.54642123 0.53663379 -0.00001782 -0.00000179 0.00004140
0.22402912 0.50175619 0.44973606 0.00000003 -0.00000148 -0.00003049
0.17053120 0.53993779 0.44972879 0.00000323 0.00004265 0.00003421
0.71000385 0.43114662 0.48045972 0.00002627 0.00004222 0.00004096
0.79254019 0.39835104 0.50218487 0.00001729 -0.00004856 -0.00003675
0.43714184 0.48122859 0.48667285 -0.00000667 0.00001907 0.00004299
0.82781631 0.56626636 0.49532288 0.00001027 0.00001145 -0.00003178
0.81282759 0.44118246 0.49765509 -0.00001036 0.00000150 0.00003332
0.83312225 0.49810457 0.48502132 0.00001250 0.00000199 -0.00002899
0.65470606 0.53201759 0.46685413 -0.00002440 0.00000649 0.00003468
0.72819656 0.58142895 0.48686576 0.00000441 -0.00003260 0.00004649
0.75100452 0.53024685 0.47371694 -0.00000409 -0.00000384 0.00003175
0.74858677 0.51217246 0.47150579 -0.00001047 0.00000106 0.00002984
0.90066528 0.47762063 0.52643782 -0.00001328 0.00000572 0.00003601
0.61194646 0.52040660 0.46910623 0.00000083 0.00004215 0.00000869
0.74603707 0.44357929 0.47872439 -0.00000958 0.00000179 0.00003482
0.90313673 0.53400308 0.53171462 -0.00001103 -0.00001285 0.00002309
0.76091206 0.55324680 0.48114491 -0.00000803 -0.00000531 0.00002881
0.87386900 0.45364156 0.51948667 -0.00001557 0.00000678 0.00003806
0.75006360 0.59556049 0.49600986 -0.00001785 0.00002445 0.00005257
0.69858664 0.44869688 0.46344540 -0.00000385 -0.00001843 -0.00003562
0.92846990 0.50001824 0.53647637 -0.00002008 0.00000633 0.00004286
0.66543710 0.51504242 0.45074975 -0.00000597 0.00001493 -0.00002540
0.94346946 0.52732038 0.55466998 0.00001729 0.00003489 0.00005485
0.59226692 0.48692217 0.48062986 -0.00000079 0.00001928 0.00003820
0.79811549 0.47343576 0.47500360 0.00001006 -0.00001041 -0.00002959
0.81096584 0.50580823 0.47830763 0.00000993 0.00000015 -0.00002740
0.66431785 0.48427510 0.46073282 -0.00000324 0.00000762 0.00003252
0.74428540 0.51688147 0.47020274 -0.00000533 -0.00000390 0.00003095
0.85320038 0.49615180 0.50320667 -0.00000742 -0.00000172 0.00003403
0.76092935 0.55021119 0.47072682 0.00000438 0.00001429 -0.00002827
0.87032020 0.52412379 0.50334865 0.00001607 0.00000546 -0.00002774
0.09720085 0.47223186 0.45444053 -0.00000403 -0.00000890 0.00003177
0.71213770 0.57019192 0.48109391 0.00002172 -0.00004046 0.00004398
0.85540062 0.42879167 0.52048033 -0.00001016 0.00001264 0.00005109
0.12332831 0.45797384 0.45329216 -0.00000377 -0.00004024 0.00006445
0.80856359 0.59148663 0.49960145 0.00001647 0.00001027 -0.00003514
0.76091111 0.56303149 0.47384164 0.00000598 0.00000736 -0.00003231
0.89542580 0.50694567 0.51129526 0.00001124 0.00000844 -0.00003067
0.11630893 0.50036305 0.44396424 -0.00000804 0.00000129 -0.00002949
0.88773757 0.48971573 0.51801705 -0.00000889 0.00000872 0.00002914
0.71857649 0.54590982 0.46183482 0.00000307 0.00001360 -0.00002992
0.54343247 0.49640569 0.47845599 -0.00001004 -0.00000575 -0.00003997
0.88547546 0.43169895 0.52585727 0.00002373 -0.00001714 -0.00003942
0.07328639 0.49203703 0.45543784 -0.00000607 -0.00000205 0.00004120
0.81942201 0.47328380 0.48263633 0.00001004 -0.00001137 -0.00002608
0.60550123 0.49237460 0.47678715 0.00000937 0.00000728 0.00003573
0.51214194 0.51530451 0.48963112 0.00000072 -0.00001825 0.00004382
0.74069750 0.41771480 0.47880179 -0.00000049 -0.00002613 -0.00003513
0.42168537 0.50090265 0.48539984 -0.00000019 0.00000096 0.00003753
0.28997886 0.47564605 0.46893245 -0.00000492 0.00001328 0.00004042
0.08194550 0.45730957 0.45398009 -0.00000941 -0.00003246 0.00004662
0.22104447 0.52729493 0.45912859 -0.00000567 -0.00002372 0.00004294
0.45413247 0.47261044 0.48142061 0.00000008 -0.00003829 -0.00002356
0.77664334 0.57770991 0.49252656 -0.00000668 -0.00001462 0.00003720
0.15519576 0.53462917 0.44234362 0.00000362 -0.00001723 -0.00005267
0.24248023 0.48326868 0.45243406 0.00000307 -0.00000555 -0.00003430
0.81134528 0.51302415 0.47842231 0.00000980 -0.00000368 -0.00002869
0.30813786 0.49359390 0.47152394 -0.00000772 0.00000245 0.00003281
0.84578884 0.58116138 0.51061559 0.00001311 0.00002052 -0.00003298
0.69716167 0.52931774 0.46507421 -0.00000183 -0.00000330 0.00003756
0.23602048 0.51940382 0.45147955 0.00000659 0.00000526 -0.00002925
0.41111630 0.48782393 0.47566515 0.00000251 -0.00001316 -0.00003591
0.72849137 0.45160508 0.47369421 -0.00000369 0.00000603 0.00003282
0.42648903 0.47850236 0.48579565 0.00000200 0.00003325 0.00004851
0.73090822 0.51465935 0.46699241 -0.00000759 -0.00000751 0.00002478
0.74569678 0.52579898 0.46206045 0.00000211 0.00000844 -0.00002785
0.62564212 0.50961000 0.45708665 -0.00003051 -0.00001875 -0.00002474
0.13747898 0.49087954 0.44308159 -0.00001093 -0.00000728 -0.00002875
0.76462919 0.50611395 0.46426618 0.00001011 0.00000097 -0.00003078
0.88462102 0.57254320 0.53611511 0.00001843 0.00002416 0.00004709
0.65556407 0.52757066 0.46555012 0.00000351 -0.00002179 0.00003764
0.75378621 0.57135212 0.47525749 0.00000546 0.00001835 -0.00002621
0.79121435 0.47384706 0.47278607 0.00001168 -0.00000993 -0.00003113
0.91549391 0.50841892 0.52100903 0.00001497 0.00000741 -0.00003356
0.19343014 0.52564973 0.45549789 -0.00000492 0.00000608 0.00003243
0.08261248 0.47951970 0.45504838 0.00000059 0.00000356 0.00003741
0.06858284 0.47235385 0.45563349 0.00001018 0.00002263 0.00005901
0.19909278 0.48053974 0.45621312 -0.00001023 -0.00000260 0.00003605
0.94140387 0.47295257 0.54357308 0.00003300 -0.00002209 -0.00005171
0.49053514 0.52348769 0.48048702 -0.00001203 0.00001978 -0.00005605
0.91574228 0.47384521 0.53662926 -0.00001650 0.00001200 0.00003380
0.05986458 0.52926862 0.45599654 -0.00000955 0.00002736 0.00006505
0.68924963 0.53165722 0.46572119 -0.00000076 -0.00001175 0.00003643
0.27004540 0.49509260 0.45658073 0.00000152 0.00000277 -0.00003097
0.09741195 0.48221317 0.44475135 -0.00001101 -0.00000024 -0.00003503
0.62091219 0.49522185 0.47029552 0.00000810 -0.00000900 0.00003331
0.49508214 0.49749309 0.48964569 -0.00000070 -0.00000090 0.00003683
0.90761644 0.49745756 0.51617259 0.00002391 -0.00000221 -0.00003051
0.83550358 0.55910963 0.50623411 -0.00001440 -0.00000231 0.00003447
0.76190209 0.52843696 0.46580583 0.00000315 0.00001060 -0.00002535
0.62516803 0.48245794 0.46785229 0.00001870 -0.00001478 0.00004874
0.26296780 0.49250564 0.45550701 0.00000275 0.00000049 -0.00003110
0.84305346 0.53138518 0.50282544 -0.00000708 -0.00000736 0.00003009
0.83572382 0.43907958 0.49706087 0.00001497 -0.00000602 -0.00002731
0.80840337 0.54944319 0.49382237 -0.00001040 -0.00000258 0.00002730
0.39126477 0.52346313 0.47349402 0.00000486 -0.00002484 -0.00004806
0.45867041 0.52418381 0.47938779 0.00000095 0.00000575 -0.00006567
0.18849909 0.46085745 0.44840479 -0.00000644 -0.00004099 -0.00002211
0.65007806 0.47203261 0.46576306 -0.00002113 -0.00001501 0.00004037
0.48434833 0.49162570 0.48935357 -0.00000451 -0.00000501 0.00003672
0.67437923 0.52247858 0.46286213 -0.00000214 -0.00000814 0.00003848
0.33501604 0.47789451 0.47524205 -0.00000585 0.00001796 0.00004310
0.92519850 0.53368735 0.54553950 -0.00004676 -0.00004169 0.00001117
0.80166793 0.59737951 0.50965828 -0.00001057 -0.00003567 0.00004173
0.46455783 0.49237189 0.48852277 -0.00000714 -0.00000127 0.00003990
0.28989515 0.51875049 0.46892062 -0.00000699 0.00001437 0.00003839
0.75269699 0.41851282 0.48965296 -0.00001033 0.00000562 0.00004527
0.34061134 0.48398483 0.47599915 -0.00001006 -0.00000638 0.00004001
0.71698231 0.57883465 0.48495123 -0.00001169 -0.00000438 0.00004663
0.19941218 0.46133974 0.45543507 -0.00000402 -0.00003753 0.00005477
0.31250656 0.47460052 0.47214276 -0.00001796 0.00002383 0.00003888
0.31437558 0.46642640 0.46760574 0.00000507 -0.00003414 -0.00001482
0.75350958 0.51804709 0.47299808 -0.00001151 0.00000087 0.00002865
0.93938828 0.52937418 0.55287462 -0.00000515 0.00001851 0.00004790
0.32653528 0.48429877 0.47407457 -0.00000556 -0.00001030 0.00003748
0.81177390 0.45926961 0.49286869 -0.00000782 0.00001052 0.00002902
0.82867622 0.52552688 0.49577513 -0.00000717 -0.00000511 0.00002713
0.78576833 0.46013588 0.47456414 0.00000736 -0.00000750 -0.00003221
0.17109627 0.48963931 0.44310525 -0.00000309 0.00000663 -0.00002911
0.23193206 0.48004112 0.45087534 -0.00000061 -0.00000509 -0.00003059
0.74981064 0.42895454 0.47460324 0.00000855 -0.00001402 -0.00003027
0.82903200 0.50664085 0.48378193 0.00000983 -0.00000250 -0.00002983
0.89511186 0.53862387 0.52883005 -0.00001884 -0.00000615 0.00003051
0.84412903 0.42087692 0.51852304 -0.00001015 0.00002113 0.00003645
0.31905547 0.52144945 0.47304451 -0.00001138 -0.00000721 0.00003647
0.85753900 0.51464570 0.50534415 -0.00000843 -0.00000590 0.00002771
0.11898601 0.54221910 0.45026565 -0.00000463 0.00003886 0.00001165
0.17747049 0.50609124 0.44375676 -0.00000055 0.00000028 -0.00003142
0.76072913 0.47905016 0.46381664 0.00000922 -0.00000475 -0.00003184
0.84371138 0.52043116 0.50070071 -0.00000886 -0.00000638 0.00002808
0.25043231 0.49102426 0.46324885 -0.00001111 0.00000098 0.00003595
0.56074345 0.50824869 0.48654914 -0.00000063 0.00000676 0.00003421
0.58238572 0.48024857 0.48295480 0.00001203 -0.00002014 0.00006177
0.75307465 0.59379333 0.48598588 0.00001964 0.00002951 -0.00006850
0.76843101 0.44699436 0.48285833 -0.00000702 0.00000228 0.00002976
0.74000955 0.48284101 0.46893153 -0.00000750 0.00000426 0.00002704
0.91922283 0.50690836 0.53214592 -0.00001747 -0.00001344 0.00004330
0.32655531 0.53303397 0.46652198 0.00000462 0.00004304 -0.00005001
0.27696469 0.49516907 0.46706337 -0.00001124 -0.00000041 0.00003323
0.14953314 0.52366513 0.44257930 -0.00001070 0.00000586 -0.00003826
0.30182371 0.48811606 0.46139622 0.00000582 0.00000203 -0.00003376
0.88356370 0.47519290 0.50946993 0.00001525 -0.00000554 -0.00003017
0.87618488 0.51789236 0.50470173 0.00001811 0.00000596 -0.00003005
0.68748522 0.47140017 0.45494282 -0.00000214 -0.00001423 -0.00002467
0.65294987 0.47467601 0.46475849 0.00000137 0.00001484 0.00003596
0.86206335 0.56569588 0.51178116 0.00002120 0.00001385 -0.00002897
0.20078710 0.53859931 0.45417571 -0.00000306 0.00004188 0.00003696
0.31458941 0.49542111 0.47242939 -0.00000565 0.00000061 0.00003173
0.47495490 0.50526500 0.48005480 0.00000023 0.00000050 -0.00003812
0.11402223 0.52655059 0.44405887 -0.00001087 0.00000904 -0.00004105
0.68870002 0.45516846 0.46111318 -0.00000454 -0.00001994 -0.00002734
0.09786328 0.46619251 0.45441324 -0.00000966 0.00001900 0.00004530
0.89342934 0.46536177 0.51649743 0.00002313 -0.00001487 -0.00002767
0.73021483 0.42055932 0.48611507 0.00001653 0.00003432 0.00004607
0.81420165 0.46531990 0.49230731 -0.00000933 0.00000657 0.00002660
0.67097783 0.49590525 0.45686007 -0.00000427 0.00000684 0.00003755
0.69506878 0.54395252 0.46063092 -0.00000807 0.00001283 -0.00002742
0.20464897 0.46761936 0.44704443 0.00000436 0.00001685 -0.00005303
0.89056033 0.48501584 0.52026194 -0.00000951 0.00000746 0.00003032
0.85116392 0.45498648 0.50930703 -0.00001285 0.00000475 0.00003291
0.24104342 0.52028555 0.45222113 0.00000629 0.00000626 -0.00003038
0.55701441 0.48565367 0.47698548 -0.00001685 0.00001003 -0.00003901
0.85057425 0.54360127 0.49906006 0.00001193 0.00000839 -0.00003060
0.07061747 0.50184536 0.45554882 -0.00000223 0.00000353 0.00004072
0.66002011 0.48038048 0.45268703 -0.00000172 -0.00001367 -0.00003556
0.84405172 0.42501900 0.51656574 -0.00000884 0.00000661 0.00003962
0.76706332 0.53972852 0.46963948 0.00000421 0.00000861 -0.00002378
0.26400879 0.50347239 0.46519434 -0.00000655 0.00000225 0.00003194
0.28370380 0.48925531 0.46803612 -0.00001053 -0.00000047 0.00003583
0.59638900 0.48765558 0.46875411 -0.00002331 0.00001972 -0.00004453
0.73121941 0.51463842 0.45735416 0.00000510 0.00000577 -0.00002816
0.86118793 0.46221876 0.51200229 -0.00001397 0.00000767 0.00002748
0.93014860 0.47679529 0.54462773 -0.00001262 0.00001384 0.00004746
0.23150347 0.46811801 0.45081165 0.00000200 0.00000415 -0.00004658
0.22102991 0.46271196 0.45912588 -0.00000490 -0.00002987 0.00005714
0.52447999 0.48042783 0.48946097 0.00000407 -0.00000313 0.00005493
0.31696346 0.52304727 0.46362829 0.00000557 0.00000020 -0.00003961
0.86072659 0.41465557 0.52122921 0.00003031 -0.00004488 -0.00005138
0.90449989 0.55244786 0.54014802 -0.00003875 -0.00003334 0.00002144
0.61555719 0.51163191 0.46193397 -0.00002289 -0.00001907 -0.00003945
0.90218490 0.55667001 0.54051018 -0.00001272 -0.00001868 0.00003307
0.68057412 0.50574726 0.45845068 -0.00000787 -0.00000395 0.00003458
0.91874337 0.48568192 0.52427667 0.00002360 -0.00001368 -0.00002738
0.93220705 0.48017851 0.54462683 -0.00000858 0.00000228 0.00005264
0.77135193 0.52599734 0.47840413 -0.00001159 0.00000531 0.00003117
0.66742355 0.51963860 0.45239949 -0.00000872 0.00001359 -0.00002817
0.81744194 0.40434760 0.50496018 0.00002319 -0.00001007 -0.00003903
0.80683374 0.59900284 0.50268620 0.00001476 0.00003678 -0.00006252
0.71935815 0.44119522 0.47645593 -0.00000029 0.00000502 0.00003313
0.44012013 0.52078700 0.47818664 0.00000327 -0.00000967 -0.00005146
0.80391282 0.58827722 0.50596750 -0.00002099 -0.00001393 0.00003848
0.91941309 0.52414834 0.52850157 0.00002475 0.00001563 -0.00003032
0.58960259 0.50285089 0.47057492 -0.00001338 0.00000502 -0.00003910
0.83297390 0.42851412 0.49991083 0.00001413 -0.00001377 -0.00002556
0.80019927 0.47884542 0.47504455 0.00001083 0.00000005 -0.00002994
0.63698560 0.50773460 0.46104953 0.00001449 -0.00000339 0.00003669
0.33567575 0.48449260 0.46632904 0.00000206 -0.00000580 -0.00003207
0.84057838 0.45486271 0.49533471 0.00001314 -0.00001462 -0.00002391
0.18645628 0.48101294 0.44477591 -0.00000090 -0.00000640 -0.00003304
0.87190539 0.49729198 0.50931883 -0.00000985 0.00000402 0.00003269
0.78977394 0.42027724 0.49722558 -0.00001303 0.00001746 0.00002946
0.86348373 0.51825094 0.49905729 0.00001680 0.00000594 -0.00002682
0.09746472 0.51417434 0.44474953 -0.00000575 0.00000213 -0.00003631
0.92777193 0.49777973 0.52637321 0.00003555 -0.00000178 -0.00003224
0.74498063 0.55927610 0.47916943 -0.00000726 -0.00000504 0.00003580
0.36995277 0.46888602 0.47194436 0.00002200 -0.00003572 -0.00005530
0.80020386 0.52376431 0.48714784 -0.00000529 -0.00000110 0.00002960
0.12523194 0.49297425 0.44359207 -0.00001231 -0.00000292 -0.00002797
0.36265767 0.49010336 0.47885180 -0.00001042 0.00000206 0.00004229
0.62794703 0.49099693 0.45585096 -0.00002659 0.00000313 -0.00002662
0.46122372 0.49010792 0.47955337 0.00000239 -0.00001014 -0.00003696
0.53070676 0.48090371 0.47947881 -0.00000505 0.00001698 -0.00004964
0.77828121 0.57013005 0.47998837 0.00000735 0.00001356 -0.00003437
0.80858451 0.47096983 0.48968664 -0.00000937 0.00000146 0.00002960
0.83834898 0.54184508 0.50335044 -0.00001506 -0.00000747 0.00003007
0.85160702 0.48640350 0.49289513 0.00001543 -0.00000844 -0.00002339
0.83081919 0.40371427 0.51387316 0.00003479 -0.00003267 -0.00002325
0.35989138 0.46968037 0.46964675 0.00000287 -0.00002515 -0.00004935
0.76839727 0.49990535 0.47750872 -0.00000738 -0.00000296 0.00002849
0.94552958 0.47502819 0.54821479 0.00004455 -0.00004268 -0.00003578
0.80623043 0.46110773 0.48079365 0.00001101 -0.00000280 -0.00002382
0.75630683 0.57413387 0.48671108 -0.00001121 -0.00001130 0.00003640
0.31433827 0.53081828 0.47239479 -0.00000011 0.00000587 0.00005449
0.24236920 0.50260520 0.46210048 -0.00000731 -0.00000251 0.00003897
0.45158187 0.47737584 0.48777393 -0.00000722 0.00000904 0.00006547
0.11206128 0.46114141 0.44414076 0.00000720 0.00000326 -0.00005933
0.65870619 0.49436831 0.44786337 -0.00000726 -0.00001046 -0.00003813
0.08113473 0.45741698 0.44575047 -0.00003765 -0.00003500 -0.00006830
0.17099525 0.50760722 0.45285994 -0.00000787 0.00000109 0.00003152
0.21343908 0.50875098 0.45808941 -0.00000609 0.00000047 0.00003398
0.89650959 0.55008286 0.52471799 0.00002475 0.00001212 -0.00002695
0.82477891 0.52217919 0.48367092 0.00001171 0.00000896 -0.00003046
0.26520085 0.47744408 0.45584550 -0.00000723 -0.00000494 -0.00003478
0.10453416 0.47016630 0.44445470 -0.00001180 0.00000111 -0.00003947
0.82140845 0.56601614 0.49288785 0.00000830 0.00000876 -0.00003214
0.82126105 0.58000302 0.50857633 -0.00001587 -0.00000927 0.00003156
0.76441354 0.52472526 0.46546552 0.00000667 0.00000674 -0.00002859
0.35316685 0.48326689 0.47762337 -0.00000925 -0.00000547 0.00004195
0.24011253 0.49376774 0.46177930 -0.00000842 0.00000062 0.00003892
0.45492414 0.52584994 0.47914571 0.00000011 0.00002278 -0.00006879
0.16809615 0.49759594 0.45253873 -0.00000910 -0.00000162 0.00003113
0.76669210 0.48594308 0.47699276 -0.00000728 0.00000194 0.00002842
0.75364155 0.45782641 0.46728542 0.00000445 -0.00001044 -0.00003357
0.52507144 0.48229963 0.47976723 -0.00000492 0.00001815 -0.00004671
0.50561392 0.52115548 0.48041785 -0.00001075 -0.00000806 -0.00006423
0.77272683 0.44732285 0.47415370 0.00000833 -0.00001143 -0.00003339
0.35220504 0.52331024 0.47749874 -0.00000757 -0.00001048 0.00004388
0.66758275 0.46167096 0.45940977 0.00000180 -0.00002399 -0.00004366
0.43214619 0.51926553 0.47756335 0.00000079 -0.00001253 -0.00004618
0.48860604 0.49014431 0.48946917 -0.00000447 -0.00000389 0.00003686
0.70236117 0.42794633 0.48159623 -0.00002572 -0.00002190 0.00004604
0.78921795 0.51825726 0.48381832 -0.00000613 -0.00000065 0.00002770
0.87275434 0.57927597 0.52409011 0.00003305 0.00004131 -0.00005004
0.71722430 0.48845634 0.46438631 -0.00000233 0.00000769 0.00002697
0.11477567 0.46581855 0.44402793 -0.00000824 0.00001439 -0.00004156
0.66688395 0.49967697 0.45612666 -0.00000211 0.00000080 0.00004550
0.83306313 0.46827725 0.48920438 0.00000954 -0.00000778 -0.00002262
0.78512228 0.43271357 0.49092782 -0.00001299 0.00000654 0.00003519
0.26166931 0.51913542 0.45530951 0.00000553 0.00001241 -0.00004009
0.11539717 0.45762259 0.44987166 -0.00000477 -0.00004154 0.00000969
0.18527697 0.52286440 0.44462943 0.00000169 0.00001236 -0.00003592
0.75836056 0.43390197 0.48366186 -0.00000843 0.00000246 0.00003208
0.50869507 0.50649798 0.48966658 -0.00000136 0.00000593 0.00003518
0.93538278 0.49994081 0.54215175 -0.00003383 -0.00000360 0.00003720
0.21711804 0.51303691 0.44877607 -0.00000745 -0.00000100 -0.00003293
0.41480523 0.47087061 0.48129690 -0.00000532 -0.00004325 -0.00000305
0.69598788 0.56760770 0.47131377 -0.00001680 0.00005368 -0.00004048
0.85169077 0.53847098 0.50808132 -0.00001020 -0.00001309 0.00003626
0.06964201 0.49966606 0.44590878 -0.00000688 0.00000452 -0.00004184
0.86049634 0.48704681 0.50629961 -0.00000979 0.00000683 0.00002709
0.84729201 0.57593554 0.51862496 -0.00001886 0.00000097 0.00004777
0.88102579 0.51269567 0.51548839 -0.00000960 -0.00001211 0.00002461
0.84450483 0.44859406 0.49837759 0.00001174 -0.00001065 -0.00002855
0.56252235 0.49785617 0.47618657 -0.00000955 -0.00000037 -0.00003719
0.29184878 0.47213450 0.46919993 -0.00000441 0.00001441 0.00005217
0.06343704 0.52643138 0.44616723 -0.00000069 -0.00001952 -0.00006049
0.41044021 0.52183068 0.48426151 -0.00000663 -0.00002281 0.00003707
0.88279295 0.53627527 0.52117825 -0.00001923 -0.00000668 0.00003388
0.16545640 0.52311194 0.45224664 -0.00000733 0.00001039 0.00003255
0.07802904 0.54217446 0.45410112 -0.00001595 0.00005291 0.00004526
0.69597149 0.48529792 0.45244956 0.00000137 -0.00000454 -0.00003054
0.74096042 0.51595879 0.45915318 -0.00000007 0.00000818 -0.00002866
0.69246089 0.50517303 0.45987111 -0.00000751 -0.00000791 0.00003073
0.68219119 0.48060709 0.46136892 -0.00000292 0.00000915 0.00004164
0.75817311 0.43956733 0.48224777 -0.00000971 0.00000039 0.00002941
0.84759963 0.41312775 0.52384716 -0.00001097 0.00001092 0.00003988
0.37753358 0.47639674 0.47188616 0.00000539 0.00002629 -0.00006110
0.12559319 0.51194769 0.44357750 -0.00001303 0.00000421 -0.00002811
0.80273348 0.51883149 0.47581255 0.00000764 0.00000334 -0.00003311
0.72925025 0.41204762 0.48708233 -0.00003630 -0.00003286 0.00002610
0.75733864 0.58104581 0.48054704 0.00000750 0.00001527 -0.00002958
0.81770498 0.59781808 0.50613040 0.00002663 0.00002543 -0.00007132
0.67701715 0.54245293 0.47027004 0.00002504 -0.00002783 0.00004105
0.80085993 0.40346861 0.49930847 0.00001617 -0.00001012 -0.00004969
0.68576181 0.46412146 0.45777276 -0.00000104 -0.00001293 -0.00002340
0.85312849 0.58544272 0.51626271 0.00002275 0.00002062 -0.00005701
0.71968669 0.44909450 0.47309911 -0.00000216 0.00001274 0.00002611
0.30093834 0.50175071 0.46126246 0.00000249 -0.00000106 -0.00002908
0.61333871 0.49187410 0.47351041 0.00001092 0.00001191 0.00003350
0.82961982 0.53879672 0.48946276 0.00000984 0.00000603 -0.00002673
0.91788340 0.51525080 0.53377199 -0.00001774 -0.00001413 0.00003620
0.57371116 0.48839813 0.48461545 0.00000281 0.00001548 0.00004390
0.74215972 0.59324735 0.48667833 -0.00000312 0.00005410 -0.00003148
0.81186670 0.53732258 0.49207982 -0.00000828 -0.00000481 0.00002712
0.12887812 0.45821860 0.44737566 -0.00000847 -0.00004064 -0.00000864
0.84108430 0.53616244 0.49345019 0.00001507 0.00000584 -0.00002685
0.44994941 0.48285285 0.47882360 -0.00000219 0.00002107 -0.00004196
0.30529517 0.53397489 0.47078416 -0.00000194 0.00003559 0.00004426
0.71718246 0.42394707 0.48374099 0.00000058 0.00002159 0.00004364
0.85766548 0.50727874 0.49417177 0.00001696 0.00001069 -0.00002643
0.16833912 0.47388166 0.45256603 -0.00001293 -0.00000425 0.00003863
0.75224745 0.48326781 0.47261500 -0.00001009 -0.00000101 0.00002951
0.08101096 0.51775408 0.45511574 -0.00000024 -0.00000363 0.00004173
0.90587568 0.46305138 0.52488637 0.00002578 -0.00001529 -0.00003493
0.28083655 0.50788105 0.46762213 -0.00000319 -0.00000188 0.00003470
0.17621477 0.48190373 0.44362846 -0.00000105 -0.00000189 -0.00003034
0.74308425 0.49882892 0.45773730 0.00001109 0.00000049 -0.00003182
0.80213743 0.46634814 0.48779663 -0.00000703 0.00000855 0.00003019
0.18732437 0.46285117 0.45472625 -0.00001457 -0.00001579 0.00005865
0.34254771 0.51694787 0.47624934 -0.00000104 0.00000768 0.00003404
0.09309058 0.52324563 0.45461252 -0.00000812 0.00000339 0.00003805
0.70631492 0.57432491 0.47300082 -0.00000620 0.00005254 -0.00005310
0.70853513 0.46907800 0.45730230 0.00000305 -0.00000897 -0.00003058
0.72298527 0.55833250 0.47636220 -0.00000187 -0.00001739 0.00003865
0.30377829 0.52025825 0.46168828 0.00000487 0.00001307 -0.00003737
0.30304667 0.49045187 0.47079691 -0.00000816 0.00000094 0.00003371
0.08371808 0.49253020 0.44532189 -0.00001213 -0.00000381 -0.00003492
0.68058968 0.51891065 0.45157692 0.00000346 0.00000707 -0.00003090
0.77748871 0.45746520 0.47291532 0.00001006 -0.00000835 -0.00003297
0.32159150 0.51417434 0.46430898 0.00000601 0.00000442 -0.00003625
0.80197728 0.43206114 0.48658553 0.00001311 -0.00000983 -0.00002754
0.84153837 0.52568340 0.50092548 -0.00000862 -0.00000711 0.00002914
0.38618088 0.52041292 0.47293076 0.00000441 -0.00001325 -0.00003822
0.29844961 0.50108647 0.47014177 -0.00000731 0.00000130 0.00003691
0.79369038 0.60164899 0.50602847 -0.00000137 0.00004195 0.00001614
0.83955836 0.43880659 0.49866238 0.00001428 -0.00000680 -0.00002880
0.75180340 0.45718673 0.47673160 -0.00000882 0.00000438 0.00002598
0.88384116 0.47488075 0.51934201 -0.00001098 0.00000527 0.00003490
0.79240644 0.44325626 0.48080364 0.00001053 -0.00000810 -0.00002859
0.56399745 0.47893640 0.47592267 -0.00002120 -0.00002352 -0.00006449
0.13752449 0.47982544 0.44307977 -0.00000997 -0.00000914 -0.00003356
0.34036112 0.47135559 0.47596636 -0.00000441 0.00000346 0.00005860
0.07505987 0.51550466 0.44568223 -0.00001477 0.00000531 -0.00003975
0.76752198 0.58680218 0.48522693 -0.00000274 0.00002492 -0.00002988
0.80081713 0.51697153 0.48733351 -0.00000349 -0.00000353 0.00003041
0.93149900 0.49945492 0.52931780 0.00003040 0.00000455 -0.00003173
0.06990045 0.53605956 0.44589791 -0.00001517 0.00001707 -0.00007700
0.84551942 0.59033191 0.51473123 0.00003791 0.00002904 -0.00006192
0.82950157 0.58171922 0.50333315 0.00001697 0.00002352 -0.00003749
0.24112259 0.50094455 0.45223299 0.00000039 0.00000192 -0.00002700
0.13513584 0.47195616 0.44317988 -0.00000686 0.00000389 -0.00003655
0.23610055 0.51696241 0.46120784 -0.00001087 0.00000931 0.00004008
0.95343435 0.50865817 0.55755180 0.00005173 0.00001764 0.00007387
0.27811944 0.50155145 0.46722993 -0.00000806 0.00000008 0.00003483
0.21446371 0.46200582 0.44924653 0.00000426 -0.00003448 -0.00004846
0.48412448 0.48126316 0.48036233 -0.00000267 0.00001985 -0.00005485
0.18904690 0.52147031 0.44509715 0.00000328 0.00000947 -0.00003691
0.28357643 0.48365360 0.46801794 -0.00001179 -0.00001008 0.00003673
0.82565153 0.44505435 0.49178043 0.00001183 -0.00000967 -0.00002786
0.94449681 0.51767403 0.54269046 0.00003118 0.00001369 -0.00004541
0.73559809 0.52389991 0.45995301 -0.00000011 0.00000781 -0.00003299
0.56103003 0.50281179 0.48651636 -0.00000255 0.00000099 0.00003935
0.86811632 0.54863787 0.51735920 -0.00001182 -0.00000966 0.00002197
0.27418754 0.52739233 0.46666297 -0.00000629 -0.00001839 0.00004345
0.73266077 0.56056464 0.47785541 -0.00000027 -0.00001784 0.00003375
0.74545652 0.57888472 0.47775990 -0.00000439 0.00002135 -0.00002969
0.26123524 0.50935155 0.45524400 0.00000398 -0.00000081 -0.00003382
0.05586626 0.50059420 0.44648209 0.00001235 -0.00000737 -0.00004698
0.31160206 0.52271330 0.47201806 -0.00000672 -0.00001043 0.00003934
0.79428732 0.42911014 0.49460673 -0.00000958 0.00001258 0.00003955
0.15299822 0.51729095 0.44243550 -0.00000733 0.00000151 -0.00003188
0.09462295 0.46444637 0.45454881 -0.00000929 0.00002475 0.00005810
0.65103441 0.48005295 0.46270019 0.00001110 0.00003444 0.00003169
0.56528044 0.48798865 0.47569248 -0.00001194 0.00002041 -0.00003472
0.09652565 0.53973126 0.45446873 0.00000017 0.00000658 0.00006969
0.76667482 0.47265047 0.46655566 0.00000825 -0.00001155 -0.00002891
0.24033546 0.52196264 0.46181113 -0.00000835 0.00000355 0.00004169
0.78214586 0.59362775 0.50186723 -0.00001353 -0.00006972 0.00003336
0.11821619 0.50492287 0.45356515 -0.00000207 0.00000250 0.00003426
0.90521687 0.44753486 0.53090292 0.00002283 -0.00000108 -0.00004718
0.76579487 0.46874401 0.46729174 0.00000839 -0.00001140 -0.00002834
0.66697764 0.54330105 0.46322790 -0.00002784 0.00004448 -0.00004008
0.08110832 0.53239429 0.45511118 -0.00000147 -0.00002353 0.00004928
0.78056067 0.58075196 0.49494886 -0.00000735 -0.00001480 0.00004256
0.74513805 0.44929472 0.47721481 -0.00000942 0.00000301 0.00002878
0.12280237 0.49690613 0.45337406 -0.00000439 0.00000127 0.00003478
0.73693025 0.58014768 0.48705599 0.00000362 -0.00005032 0.00003526
0.13367537 0.51543552 0.45292091 -0.00000638 -0.00000221 0.00003835
0.37349886 0.53095752 0.47152394 -0.00000945 0.00003412 -0.00004693
0.20724051 0.46299860 0.44740477 -0.00000018 -0.00001893 -0.00006208
0.67305160 0.52654153 0.45475990 -0.00000674 0.00001653 -0.00002719
0.37484738 0.49025440 0.47154582 0.00000598 -0.00000644 -0.00003679
0.17522471 0.53046614 0.45332855 -0.00000724 -0.00000392 0.00003760
0.47902060 0.50423491 0.48019126 -0.00000029 -0.00000247 -0.00003881
0.76844829 0.55418313 0.47346854 0.00000745 0.00001236 -0.00002989
0.28955209 0.51522082 0.45953718 0.00000168 0.00000369 -0.00003592
0.38293138 0.47742042 0.48128137 -0.00000245 0.00002294 0.00004354
0.87008727 0.50096911 0.49846035 0.00001657 0.00000412 -0.00003249
0.69063914 0.55855727 0.47612926 -0.00001169 -0.00001712 0.00006119
0.05283428 0.50661355 0.45628953 0.00004240 0.00000797 0.00005972
0.79574686 0.45499283 0.47887275 0.00000740 -0.00000948 -0.00002990
0.34618843 0.52852702 0.47672072 0.00000329 -0.00000180 0.00006059
0.21101134 0.51649922 0.45775732 -0.00000522 0.00000512 0.00003339
0.92269433 0.46677944 0.54377055 -0.00003632 0.00004417 0.00003216
0.73580194 0.42042920 0.48665830 0.00000665 0.00003959 0.00003634
0.13045415 0.47167230 0.45305559 -0.00000261 -0.00000286 0.00003469
0.66170084 0.51990521 0.46241355 -0.00000273 -0.00000783 0.00003788
0.70753700 0.44228354 0.47574162 -0.00000765 0.00000426 0.00003349
0.50727552 0.52503824 0.48466915 -0.00000313 0.00003855 0.00000254
0.46620208 0.52556515 0.47976175 0.00001516 0.00002854 -0.00007335
0.62253827 0.50098455 0.46947113 0.00001368 0.00000209 0.00003232
0.81204408 0.46960944 0.48079091 0.00001309 -0.00000894 -0.00002350
0.81711531 0.45720404 0.49534655 -0.00000795 0.00000780 0.00002779
0.44709671 0.48667464 0.47863886 -0.00000105 -0.00000573 -0.00003874
0.49903587 0.48661003 0.48044786 0.00000158 0.00000769 -0.00004346
0.85754448 0.57943070 0.51568031 0.00001010 0.00001589 -0.00003905
0.24740672 0.47087240 0.46281847 -0.00000091 0.00001548 0.00004608
0.13182454 0.48008293 0.44331726 -0.00000887 -0.00000836 -0.00003482
0.85150421 0.50355244 0.50269258 -0.00000793 0.00000011 0.00003380
0.71458542 0.45264059 0.46184209 0.00000059 -0.00001862 -0.00003217
0.88966942 0.43392923 0.53691864 -0.00001404 0.00000372 0.00004135
0.41808835 0.51095223 0.47629485 0.00000287 0.00000903 -0.00003691
0.43125445 0.50501382 0.48618785 -0.00000613 -0.00000601 0.00003515
0.53546309 0.47779080 0.47923580 0.00000157 -0.00001844 -0.00005380
0.82821852 0.50071979 0.48353538 0.00001206 0.00000143 -0.00002807
0.36904553 0.48410222 0.47964802 -0.00000967 -0.00000803 0.00003300
0.09062918 0.50423312 0.44503435 -0.00000571 0.00000209 -0.00003167
0.86990434 0.56579685 0.52583724 -0.00002662 0.00000341 0.00003744
0.10181339 0.51972961 0.44456753 -0.00000715 0.00000476 -0.00003884
0.71445811 0.47904468 0.45615941 0.00000577 -0.00000606 -0.00002869
0.33845475 0.51147908 0.46671489 0.00000235 0.00001077 -0.00003980
0.83171368 0.48905599 0.48459452 0.00001226 -0.00000031 -0.00003127
0.69777042 0.46547094 0.45688099 0.00000236 -0.00001517 -0.00003046
0.76937467 0.55969745 0.48471373 -0.00000840 -0.00000578 0.00003001
0.73724961 0.46816531 0.47159952 -0.00000659 0.00000476 0.00002386
0.78994322 0.47820026 0.47193709 0.00001136 -0.00000224 -0.00003111
0.34919855 0.47647318 0.46820810 0.00000285 0.00001805 -0.00003916
0.28984874 0.51070654 0.45958266 0.00000020 -0.00000026 -0.00003327
0.48477969 0.48045057 0.48936540 -0.00000836 0.00002378 0.00004200
0.75584817 0.42346570 0.48779300 -0.00000682 0.00001416 0.00003936
0.77319825 0.60080272 0.50083810 -0.00000706 0.00003213 0.00003956
0.06476377 0.46383667 0.45019469 -0.00003557 -0.00004358 -0.00001726
0.20910771 0.49224991 0.44766411 0.00000247 -0.00000062 -0.00002825
0.19294697 0.46542907 0.44558123 -0.00000563 -0.00000224 -0.00005232
0.92143679 0.50198096 0.53232700 -0.00002086 0.00000054 0.00004665
0.89976716 0.55469722 0.53825080 -0.00001778 -0.00004649 0.00002969
0.77570516 0.51222432 0.47972357 -0.00000984 -0.00000039 0.00002971
0.81825089 0.45129752 0.48751277 0.00001459 -0.00000867 -0.00002954
0.79072940 0.40805203 0.49394700 0.00000857 -0.00002459 -0.00002854
0.62634009 0.49938941 0.46712980 0.00001637 -0.00000040 0.00003125
0.86444098 0.54475874 0.51493508 -0.00001533 -0.00001146 0.00002937
0.18333331 0.53937185 0.45294636 -0.00001286 0.00004033 0.00005409
0.80935794 0.48926803 0.47782087 0.00000624 0.00000093 -0.00002845
0.05199531 0.48027402 0.44664404 -0.00003402 -0.00001325 -0.00008788
0.26258564 0.46721804 0.45544875 0.00000676 -0.00001208 -0.00006605
0.80190450 0.51513523 0.47556144 0.00000776 0.00000108 -0.00003116
0.29634121 0.50511944 0.46984059 -0.00000824 -0.00000246 0.00003688
0.52179199 0.48558182 0.48953012 -0.00000090 0.00000173 0.00003527
0.68897760 0.48894224 0.45085624 0.00000103 -0.00000251 -0.00002939
0.17632304 0.46031785 0.44654393 0.00001192 -0.00004328 -0.00002871
0.08002093 0.50111377 0.44547570 -0.00001111 -0.00000037 -0.00003609
0.46054488 0.48378557 0.47950971 0.00000233 0.00000348 -0.00003893
0.36408445 0.48879761 0.47017908 0.00000483 -0.00000411 -0.00003340
0.52495956 0.49182951 0.47977272 -0.00000304 -0.00001574 -0.00004119
0.92024750 0.54461408 0.53694135 0.00003309 0.00002117 -0.00005106
0.75034571 0.48817787 0.45993754 0.00000737 -0.00000301 -0.00003439
0.85792667 0.52280796 0.49762142 0.00001385 0.00000437 -0.00002721
0.26164019 0.50449604 0.45530498 0.00000416 0.00000445 -0.00003348
0.88422519 0.51504970 0.51741469 -0.00000910 -0.00001130 0.00002514
0.28861392 0.49631196 0.45939523 0.00000418 0.00000146 -0.00003238
0.59194481 0.49254659 0.48072267 0.00000498 -0.00000065 0.00003156
0.77211267 0.59462601 0.49017256 0.00000399 0.00002832 -0.00003220
0.89348304 0.43352616 0.53936273 -0.00000429 -0.00002906 0.00004884
0.43312714 0.51395321 0.48634166 -0.00000903 0.00001015 0.00003366
0.83093929 0.55408210 0.49355301 0.00000841 0.00001178 -0.00002766
0.44553161 0.51507157 0.47853696 0.00000159 0.00000059 -0.00004244
0.06450351 0.48346800 0.44612265 -0.00001158 -0.00000149 -0.00003887
0.17760606 0.51711166 0.44377041 -0.00000167 -0.00000020 -0.00003352
0.80120111 0.46669483 0.47771439 0.00000709 -0.00000591 -0.00002564
0.86292595 0.52400362 0.50970376 -0.00001050 -0.00000417 0.00002924
0.27354237 0.51578677 0.46657017 -0.00000697 0.00000794 0.00003368
0.91284508 0.45524764 0.53229880 0.00002226 -0.00001335 -0.00003854
0.78132141 0.42723745 0.49118441 -0.00001232 0.00001674 0.00002971
0.17658783 0.51697332 0.45347872 -0.00000372 -0.00000185 0.00003396
0.08143591 0.52381068 0.44541651 -0.00000951 0.00001514 -0.00004217
0.25508216 0.49532467 0.45430949 0.00000269 0.00000004 -0.00002938
0.46597824 0.47313455 0.47993195 0.00001073 -0.00002946 -0.00005799
0.36068490 0.51181662 0.47859612 -0.00000996 0.00000491 0.00004010
0.15594375 0.46904796 0.44231266 -0.00000426 0.00000674 -0.00003296
0.74435455 0.48053432 0.47022367 -0.00000931 0.00000436 0.00002742
0.53870350 0.49639115 0.47896740 -0.00000533 -0.00000917 -0.00004010
0.06203574 0.53217685 0.45590645 -0.00002461 0.00002617 0.00007536
0.37140685 0.47895095 0.47110903 0.00000504 0.00001312 -0.00004678
0.45411789 0.51323891 0.47909296 0.00000128 0.00000807 -0.00003591
0.20600750 0.50251693 0.44723371 0.00000023 0.00000359 -0.00003074
0.32877284 0.53293574 0.47115454 -0.00001096 0.00004211 0.00000599
0.40259457 0.50406474 0.48346072 -0.00001349 -0.00000364 0.00003471
0.53440940 0.50112474 0.48889223 -0.00000075 0.00000081 0.00003758
0.68942440 0.48477742 0.45169613 0.00000160 -0.00000152 -0.00002982
0.45586139 0.52731311 0.48234698 -0.00000487 0.00003982 -0.00002727
0.82701373 0.46249631 0.48811787 0.00000985 -0.00000785 -0.00002707
0.70098257 0.47024363 0.46569207 -0.00000451 0.00000600 0.00003259
0.41698274 0.52727216 0.48492846 -0.00000452 0.00000341 0.00005313
0.16310596 0.54011893 0.45198640 0.00000707 0.00003595 0.00006090
0.08364619 0.53362912 0.44532463 -0.00002300 -0.00002208 -0.00004675
0.31133452 0.47113812 0.47197989 -0.00001601 0.00000840 0.00004500
0.81273019 0.57060140 0.50054872 -0.00001025 -0.00000521 0.00003817
0.80274075 0.45392910 0.49107888 -0.00000753 0.00000662 0.00003060
0.05756603 0.47805467 0.44641200 0.00000768 -0.00000118 -0.00007400
0.30615780 0.46606332 0.46468386 0.00000062 -0.00003995 -0.00003072
0.19805543 0.47945780 0.44621545 0.00000144 -0.00000841 -0.00003683
0.81944937 0.46419156 0.48484293 0.00001392 -0.00000709 -0.00002504
0.45364565 0.49556947 0.48789221 -0.00000097 -0.00000069 0.00003747
0.73348063 0.41569471 0.48860103 -0.00000559 0.00003170 0.00004420
0.93083841 0.51445824 0.54168403 -0.00001818 -0.00001804 0.00003404
0.32641336 0.46695960 0.47257498 0.00001028 -0.00003565 0.00002696
