0.028290 0.050198 -0.464412
-0.042471 -0.038618 -0.447868
0.055780 -0.014554 -0.294083
0.031649 -0.021398 -0.184107
-0.018581 -0.054220 -0.345625
0.000110 -0.057682 -0.245055
0.050009 0.028744 -0.304187
0.029305 -0.049616 -0.239589
0.038139 0.002466 -0.077310
0.004717 0.024520 -0.192285
0.004125 -0.057154 -0.309061
0.033880 0.017858 -0.133000
0.056329 -0.010387 -0.286176
0.011554 -0.056176 -0.203523
-0.002624 -0.057351 -0.342833
-0.000778 0.004744 -0.025618
-0.048440 -0.030839 -0.441163
0.051583 0.024946 -0.297576
-0.002913 -0.004643 0.266483
0.048736 0.030452 -0.400637
0.055652 0.015121 -0.227027
-0.035564 -0.044814 -0.310054
0.018166 0.033753 -0.181774
0.022277 0.040675 -0.192285
-0.019623 -0.053788 -0.258075
-0.039067 0.042126 -0.425491
0.001483 0.004120 0.004803
0.025614 -0.003800 -0.076892
-0.007937 -0.000057 0.440788
0.055901 0.013637 -0.313065
0.028723 0.016134 -0.076892
0.019220 0.053955 -0.199145
-0.038066 0.003027 -0.182672
0.023201 -0.025002 -0.500000
-0.049363 0.029635 -0.493858
-0.044494 0.035981 -0.195811
-0.010520 -0.004760 -0.192285
0.006985 0.056777 -0.233739
-0.035476 0.044881 -0.244509
0.003164 -0.040185 -0.500000
-0.011489 -0.036519 -0.114324
0.057324 0.002830 -0.220466
-0.006243 0.006084 0.222006
0.001986 0.055206 -0.500000
-0.004059 -0.004327 0.374837
0.002539 0.057362 -0.329178
-0.051719 0.009845 -0.192285
-0.054810 0.013662 -0.192285
0.046776 0.033005 -0.386499
0.011294 -0.036599 -0.115559
-0.000975 -0.005177 0.252991
0.016096 0.019830 -0.076892
0.057614 0.000624 -0.234428
-0.008003 -0.000294 0.182175
0.035313 -0.045006 -0.290155
-0.037659 0.006118 -0.176224
-0.007024 0.003252 0.001695
0.056046 -0.012532 -0.297772
0.050114 -0.028491 -0.492216
-0.010740 0.056283 -0.460836
0.056634 -0.008070 -0.441233
0.008543 -0.006262 -0.076892
0.043731 -0.030409 -0.192285
-0.037421 0.007926 -0.120928
0.054394 -0.018159 -0.473881
-0.028917 -0.049914 -0.392834
-0.056818 -0.006679 -0.412615
-0.018740 -0.054154 -0.396887
-0.042310 -0.038827 -0.436156
0.017811 0.033900 -0.139457
0.003548 -0.057229 -0.480222
0.050889 -0.026622 -0.468906
-0.031256 0.048119 -0.305040
-0.015330 -0.055567 -0.447937
-0.055068 -0.016533 -0.305475
-0.041691 -0.039634 -0.227801
-0.011607 -0.036281 -0.076892
0.055777 -0.014581 -0.242695
-0.043314 0.037519 -0.339005
-0.056093 -0.012185 -0.246565
-0.057168 0.004020 -0.396249
-0.003097 0.057289 -0.223024
0.053016 -0.021485 -0.239720
-0.039329 0.041925 -0.413376
-0.009284 0.056474 -0.230625
0.011413 0.056194 -0.437057
-0.005019 0.005913 -0.024345
0.016550 0.013608 -0.500000
0.012718 0.056022 -0.317399
-0.031600 0.047856 -0.230857
0.049154 -0.029906 -0.321494
0.052271 -0.023284 -0.207819
0.042502 0.014987 -0.500000
0.032004 0.020935 -0.090980
0.022875 0.052441 -0.405169
0.002890 0.003032 0.303270
0.057448 0.001887 -0.442464
-0.019590 0.030826 -0.192285
0.056434 -0.009586 -0.404689
-0.034705 0.015869 -0.167934
0.014013 -0.055852 -0.472199
0.051863 0.024270 -0.404249
0.003697 0.057210 -0.469784
0.024481 -0.029283 -0.168715
-0.000165 0.001372 0.490745
-0.007594 0.001188 0.094219
-0.032656 0.047045 -0.352493
0.051208 -0.025850 -0.268813
0.049445 0.029528 -0.360239
-0.004236 -0.019114 -0.076892
-0.044585 0.035863 -0.324417
0.005584 0.056961 -0.262507
0.002544 0.057362 -0.344812
-0.047967 0.031455 -0.244811
0.050424 0.027744 -0.460125
0.003825 -0.057193 -0.260700
0.017074 0.034205 -0.085177
0.038060 0.042898 -0.423764
-0.031987 -0.047558 -0.279609
0.001440 0.004131 -0.057421
0.023421 0.052215 -0.330852
0.022517 0.052589 -0.409289
0.025165 0.051492 -0.427358
0.000507 -0.038398 -0.109663
0.034301 -0.045782 -0.412779
-0.048426 0.024601 -0.192285
-0.055948 -0.013285 -0.494886
0.045229 -0.003241 -0.192285
-0.008021 -0.037409 -0.081732
-0.013876 -0.007356 -0.076892
0.002689 0.003787 0.447268
-0.021883 0.052852 -0.192742
-0.055304 -0.015963 -0.392993
0.051666 -0.024744 -0.486572
0.056167 0.011615 -0.483930
-0.025940 0.028165 -0.183410
-0.029754 0.010857 -0.500000
0.014295 -0.028349 -0.076892
0.025473 -0.051365 -0.441728
-0.052683 -0.022292 -0.484522
0.001525 -0.001916 0.025461
-0.032465 -0.047192 -0.290851
0.000730 0.004327 0.421771
0.028137 0.050261 -0.311621
0.019487 0.053844 -0.233330
0.001616 0.057484 -0.220480
0.035074 -0.045190 -0.339557
0.009421 0.055869 -0.192285
0.004717 0.057075 -0.244663
0.054486 -0.017937 -0.476561
0.057271 -0.003232 -0.233267
-0.011518 0.056180 -0.367739
-0.056462 -0.009377 -0.217670
-0.030154 0.048965 -0.406989
-0.055219 0.016169 -0.450385
-0.019590 0.053802 -0.465602
-0.038391 0.000562 -0.113601
0.055797 -0.014425 -0.496240
-0.007658 -0.056688 -0.309596
-0.003297 -0.057263 -0.282857
-0.055737 -0.014888 -0.353672
-0.017614 -0.054620 -0.293962
-0.003542 0.005506 0.059998
-0.005310 0.005994 0.005908
-0.013030 0.055981 -0.342127
0.020483 0.053432 -0.374446
0.004695 0.037846 -0.187358
-0.037600 -0.006572 -0.109868
-0.000419 0.004644 0.242912
-0.056742 0.007250 -0.240722
0.000561 -0.005409 0.024693
0.010809 0.056273 -0.422435
-0.033120 0.019482 -0.086803
-0.005957 0.006172 0.030340
0.056474 0.009285 -0.351368
0.012835 0.005873 -0.076892
-0.008060 0.056635 -0.390994
0.008323 0.042062 -0.500000
0.040967 -0.006890 -0.500000
-0.032572 0.047110 -0.498923
0.005206 0.037779 -0.164852
0.057436 0.001977 -0.412816
-0.008549 0.056571 -0.402343
0.015412 -0.055532 -0.335345
0.011515 -0.056181 -0.476917
-0.025041 -0.028854 -0.138724
-0.031218 0.001957 -0.076892
-0.034766 -0.045426 -0.288587
-0.029439 0.024279 -0.143755
0.023106 0.030338 -0.185376
-0.056813 0.006718 -0.205164
-0.008571 -0.002353 0.012421
0.012515 0.056049 -0.424977
0.056787 -0.006906 -0.412777
0.056981 -0.005431 -0.428626
-0.049579 -0.029355 -0.338130
-0.051705 -0.024653 -0.459606
0.041379 0.040039 -0.271758
-0.057010 -0.005218 -0.331809
-0.053662 -0.019929 -0.352747
0.031541 -0.047901 -0.307799
0.026185 -0.051070 -0.342622
0.028421 -0.025604 -0.084451
-0.022907 0.052428 -0.457955
-0.033636 -0.018450 -0.134206
0.050219 0.028239 -0.462709
0.013150 0.055965 -0.378036
-0.030971 -0.048339 -0.330658
-0.027766 0.050415 -0.280997
-0.056253 -0.010966 -0.278027
-0.033307 0.019237 -0.090790
-0.028448 0.026021 -0.500000
0.057281 0.003153 -0.339495
0.038135 -0.002502 -0.107869
-0.056941 -0.005740 -0.250530
0.002123 0.000250 0.236576
0.042199 0.032945 -0.192285
0.056009 -0.012814 -0.301533
0.015392 0.037164 -0.500000
-0.043930 -0.008145 -0.192285
0.026979 -0.027367 -0.128081
-0.006591 0.004822 0.012460
0.035159 -0.045124 -0.425211
0.040369 0.041126 -0.229768
0.020422 -0.032398 -0.103866
-0.003119 -0.026457 -0.192285
-0.004418 0.057115 -0.454040
-0.022950 -0.052410 -0.300257
-0.046634 -0.033193 -0.277607
-0.053170 0.021115 -0.410945
-0.049381 -0.029612 -0.297869
-0.005862 0.006146 -0.041931
-0.026495 0.050942 -0.492544
-0.026637 -0.050883 -0.209831
-0.021530 0.031548 -0.175682
-0.043821 -0.036858 -0.347674
0.039133 -0.039347 -0.192285
0.030359 -0.023079 -0.159994
0.014306 0.019925 -0.500000
0.005556 0.010728 -0.500000
-0.028079 -0.050286 -0.312764
0.044499 -0.035973 -0.209134
0.052789 0.022033 -0.207763
0.054803 0.017171 -0.418541
0.023726 -0.029863 -0.108548
0.015336 0.005033 -0.076892
-0.010599 -0.050876 -0.192285
-0.037973 -0.042965 -0.238052
-0.035400 -0.014191 -0.094725
-0.025747 -0.051251 -0.226689
-0.036982 0.010371 -0.162934
0.002610 0.057353 -0.415403
-0.052939 0.021673 -0.428206
0.041959 0.039283 -0.306427
-0.056006 -0.012842 -0.398438
-0.041667 -0.039665 -0.279531
0.026197 -0.038393 -0.500000
0.030012 0.049073 -0.384488
-0.000618 0.057615 -0.289576
-0.057006 0.005246 -0.253107
0.040568 -0.040973 -0.316693
-0.042206 -0.038963 -0.313367
-0.013891 0.055868 -0.461931
-0.008837 -0.056533 -0.286445
-0.031806 -0.047697 -0.441947
-0.044346 -0.036173 -0.367255
0.018479 -0.054262 -0.277012
0.051568 0.024981 -0.462137
-0.023142 0.052331 -0.312779
-0.039715 0.041628 -0.359553
-0.007459 -0.003389 0.269029
-0.037244 0.009273 -0.086252
0.056297 0.010630 -0.410072
-0.049469 -0.029498 -0.392138
-0.006105 -0.056893 -0.367559
0.032036 -0.020893 -0.140115
0.051982 0.023981 -0.356148
0.002056 0.038194 -0.169046
0.031030 -0.031325 -0.192285
-0.028293 0.050197 -0.288577
0.014957 0.055720 -0.360454
-0.052636 0.022404 -0.393261
-0.033099 0.046705 -0.270161
-0.049697 0.029201 -0.468205
0.036937 0.010476 -0.165395
0.025833 0.051216 -0.237544
-0.039031 0.042154 -0.326296
-0.045330 0.034891 -0.202928
0.015306 -0.034937 -0.084183
0.024727 0.051674 -0.419464
-0.046422 -0.033469 -0.223502
-0.008594 -0.037333 -0.103737
-0.029580 -0.049406 -0.376433
0.054904 0.016927 -0.260302
-0.000450 0.057637 -0.499549
-0.001555 -0.057492 -0.383569
0.044327 0.036197 -0.347346
0.050610 0.027294 -0.396212
0.032628 0.047066 -0.301101
0.033033 -0.046755 -0.479583
0.006380 0.056856 -0.277889
0.000797 0.021834 -0.076892
0.001943 -0.000401 0.150748
0.019218 -0.053956 -0.463460
-0.036756 0.043899 -0.329467
-0.014908 0.035103 -0.080249
0.016608 -0.055037 -0.308674
0.050550 0.002737 -0.192285
-0.015284 -0.022245 -0.500000
0.022772 0.030595 -0.106981
0.041911 -0.039346 -0.462413
0.035883 -0.013022 -0.086754
-0.001284 0.004883 0.208912
-0.056727 0.007368 -0.216076
-0.045887 0.034165 -0.222289
-0.003413 -0.003444 -0.500000
0.053070 0.021354 -0.425669
0.026865 0.050788 -0.474758
0.017930 0.054489 -0.243251
-0.001331 -0.057521 -0.363899
0.038450 -0.000103 -0.164139
0.032777 -0.046952 -0.304156
-0.051013 -0.026324 -0.479852
-0.027352 0.000951 -0.076892
-0.043869 -0.036796 -0.221674
0.057358 -0.002568 -0.237624
-0.056863 0.006338 -0.465038
0.034681 0.015925 -0.098927
-0.029572 -0.049412 -0.226936
0.007618 -0.037462 -0.101277
0.024984 -0.051567 -0.422283
0.034670 0.045499 -0.388739
-0.055976 -0.013072 -0.257967
0.050481 -0.027605 -0.290928
-0.023198 0.052307 -0.483883
-0.035873 -0.013048 -0.144577
-0.041528 0.022257 -0.192285
-0.012185 0.056092 -0.243441
0.038246 0.001659 -0.114232
-0.007561 -0.003361 0.290748
-0.045655 0.034468 -0.329403
0.041525 0.039850 -0.240261
-0.011539 0.056177 -0.435213
-0.001877 0.057449 -0.336273
-0.008285 -0.003161 0.069035
0.002927 0.003722 0.128597
-0.020367 0.053480 -0.298405
-0.015134 0.055647 -0.472719
-0.018933 0.054074 -0.388682
-0.054522 -0.017852 -0.493768
-0.020176 0.032587 -0.100141
-0.019581 -0.053806 -0.386271
0.022294 -0.030961 -0.161403
-0.054968 -0.016775 -0.287196
-0.007770 0.000549 -0.074632
-0.051928 -0.024114 -0.212471
0.017152 0.054811 -0.420175
-0.006707 -0.056814 -0.418158
0.036094 -0.012513 -0.150915
-0.009118 0.056496 -0.302339
-0.000770 0.004741 0.319461
-0.027265 0.046020 -0.192285
0.046045 0.033958 -0.395451
0.001675 -0.001372 0.361979
-0.003226 0.000235 0.497603
0.036570 0.044041 -0.456633
0.000572 -0.005371 0.114389
-0.056365 0.010121 -0.282885
-0.022904 -0.052429 -0.288434
-0.022633 -0.030702 -0.119231
0.045973 -0.034052 -0.202365
0.057299 0.003014 -0.325894
0.049638 -0.012249 -0.500000
-0.006350 0.005697 0.228612
-0.034208 -0.045854 -0.322949
0.007865 -0.056661 -0.386054
0.045470 -0.009512 -0.500000
0.026263 -0.051038 -0.338033
0.030899 -0.022376 -0.096720
-0.033831 0.046143 -0.343727
0.020558 0.037746 -0.500000
0.056275 -0.010792 -0.313837
0.051453 -0.025258 -0.199957
-0.030299 0.048854 -0.211159
-0.048706 0.002428 -0.192285
0.057412 -0.002157 -0.309850
-0.056857 -0.006381 -0.263124
0.033860 0.046121 -0.418131
-0.003916 -0.057181 -0.243879
-0.005899 0.037688 -0.088690
-0.021151 -0.053155 -0.443444
0.039108 -0.042094 -0.202689
-0.029940 0.049129 -0.222925
-0.024443 0.029313 -0.141653
-0.024190 0.029508 -0.159783
0.015952 -0.055308 -0.361995
0.039511 0.041785 -0.321045
-0.034171 0.017158 -0.133194
0.040440 -0.041072 -0.281798
-0.037567 -0.006819 -0.102011
-0.019930 -0.032776 -0.166504
0.055751 0.014776 -0.278615
0.042741 0.034063 -0.500000
-0.012186 -0.056092 -0.245472
0.050609 -0.027296 -0.484130
-0.052863 0.021856 -0.431249
-0.036459 0.011633 -0.098829
-0.020271 -0.053520 -0.239138
0.002147 0.000337 0.367389
-0.008425 -0.001824 -0.023438
0.056534 0.008826 -0.281584
0.046019 0.033993 -0.284895
0.056595 -0.008366 -0.456787
0.012505 -0.008980 -0.192285
-0.013920 -0.055864 -0.359949
-0.054228 0.018562 -0.430544
0.051290 -0.025653 -0.413782
-0.053663 -0.019925 -0.242060
0.000396 0.057644 -0.224497
-0.047641 0.031879 -0.415927
-0.057232 0.003534 -0.325571
-0.032432 0.020379 -0.136568
0.044385 0.012296 -0.500000
0.045393 -0.034809 -0.273862
0.035152 0.014787 -0.089790
0.031475 -0.047951 -0.286793
-0.041094 -0.040413 -0.450480
-0.027513 -0.050520 -0.221614
-0.037500 0.007330 -0.185867
0.029679 -0.023965 -0.114270
-0.005363 -0.037758 -0.166580
-0.056914 0.005947 -0.218679
-0.049046 -0.030049 -0.333144
-0.056972 -0.005504 -0.208634
-0.039013 0.041095 -0.500000
0.016456 0.008148 -0.192285
-0.052348 0.023100 -0.260040
0.050405 0.027789 -0.275326
0.013854 -0.035539 -0.156256
-0.038995 0.042181 -0.192798
0.042802 0.038184 -0.419509
-0.044283 -0.036256 -0.288437
0.052190 0.023479 -0.258659
0.040897 -0.040667 -0.388850
0.029245 -0.049662 -0.362994
0.032451 0.047202 -0.272231
0.009146 0.029443 -0.192285
0.046331 0.033586 -0.383783
0.038778 0.042347 -0.380115
-0.057426 -0.002060 -0.327553
0.037970 0.003753 -0.189180
-0.010647 -0.056295 -0.409367
-0.049799 0.029067 -0.235350
0.041015 -0.040513 -0.489020
0.057017 0.005156 -0.480978
-0.037504 -0.043325 -0.278847
-0.037332 0.043457 -0.310706
0.011342 -0.056203 -0.426377
-0.015889 -0.055335 -0.260962
0.037223 0.009429 -0.150470
0.007604 -0.009275 -0.500000
0.029441 -0.024276 -0.165256
-0.019079 -0.033375 -0.079075
-0.012501 -0.036100 -0.112023
-0.000893 -0.057579 -0.375333
-0.026106 0.015915 -0.500000
0.055823 -0.014231 -0.373949
-0.015277 0.055588 -0.271531
0.026388 -0.000617 -0.192285
0.013962 0.035494 -0.122562
-0.022042 -0.023737 -0.192285
-0.002074 -0.057424 -0.412729
0.057286 -0.003113 -0.225174
-0.050715 0.027042 -0.319723
-0.006605 0.030475 -0.192285
-0.037917 0.004165 -0.133589
0.033340 -0.019163 -0.123070
0.018768 0.054142 -0.315701
-0.051123 -0.026057 -0.497804
-0.003190 -0.048186 -0.500000
-0.033661 0.018388 -0.115782
0.053516 0.020279 -0.229383
0.001779 0.057462 -0.312327
-0.046795 0.032982 -0.309546
0.046123 0.033857 -0.392452
0.032859 -0.046889 -0.459242
-0.051314 -0.025597 -0.194755
0.035257 0.045049 -0.450734
0.057299 -0.003020 -0.316991
0.033548 0.046360 -0.315018
-0.010746 0.056282 -0.217164
0.052448 0.022857 -0.241749
-0.046687 -0.033123 -0.457381
0.000945 0.057572 -0.294443
0.008891 0.052192 -0.192285
0.037895 -0.004324 -0.132140
0.005208 0.037779 -0.111287
-0.001345 0.004900 0.376628
0.017544 0.034010 -0.082686
0.003012 0.003474 0.265810
-0.026705 0.050855 -0.335241
0.028731 0.025201 -0.137705
0.057402 0.002232 -0.275103
-0.020661 0.053358 -0.440124
-0.054628 -0.017595 -0.195760
-0.003261 -0.057267 -0.262707
-0.055991 0.012961 -0.224615
-0.021054 0.005795 -0.192285
-0.006925 -0.056785 -0.273378
-0.048144 0.031224 -0.197155
0.043095 -0.037803 -0.231249
0.037642 0.006243 -0.152760
0.049079 0.030005 -0.394957
0.055859 -0.013951 -0.368150
-0.039942 0.041454 -0.286837
0.039706 0.041635 -0.314476
-0.019600 -0.033029 -0.153066
0.012231 0.056086 -0.334309
0.004610 -0.022207 -0.076892
0.005229 0.037776 -0.117871
-0.001278 -0.005094 0.142559
-0.014444 0.042754 -0.500000
-0.013850 0.055873 -0.387023
-0.005326 -0.056996 -0.199871
-0.041141 0.040350 -0.314478
-0.007419 0.001823 -0.006163
0.056313 -0.010503 -0.206900
-0.050237 -0.028197 -0.269580
0.056848 0.006445 -0.265125
-0.043956 0.036682 -0.292988
-0.027190 -0.050654 -0.333219
0.033413 -0.046464 -0.499394
0.028983 0.024872 -0.122101
-0.006131 -0.003755 0.162188
0.000767 -0.057596 -0.479596
-0.033870 0.017883 -0.164671
-0.040296 0.017718 -0.500000
-0.004360 0.057123 -0.259278
0.021567 0.000037 -0.076892
-0.052753 -0.022123 -0.445589
0.057316 -0.002886 -0.221646
0.003197 -0.057276 -0.491069
0.001997 0.038201 -0.128105
0.004163 0.037916 -0.182575
0.014791 -0.055749 -0.374941
0.024639 -0.051710 -0.428123
0.051395 0.025399 -0.369637
-0.000004 0.057696 -0.319590
0.009352 0.022859 -0.076892
-0.035516 -0.009228 -0.500000
0.001566 -0.001769 -0.013865
0.014698 0.055761 -0.293731
-0.014453 0.055794 -0.384381
0.054876 0.016995 -0.195120
-0.035826 0.013163 -0.188179
0.038104 -0.042864 -0.316277
0.047232 -0.032412 -0.301126
0.010743 0.024224 -0.500000
-0.013221 -0.033970 -0.192285
0.053929 -0.019281 -0.306165
0.056226 -0.011169 -0.430377
0.050486 -0.027595 -0.271101
-0.012296 0.036184 -0.143803
0.032745 -0.019969 -0.187845
-0.006547 0.004982 0.203056
0.010737 0.024631 -0.192285
-0.032196 0.047398 -0.260676
0.041069 0.040444 -0.476220
-0.013328 -0.049512 -0.500000
0.013907 0.012141 -0.076892
0.047873 -0.031577 -0.220126
0.012003 -0.056116 -0.422512
-0.044883 -0.035474 -0.350153
-0.022391 -0.052642 -0.450945
-0.002424 -0.004778 0.045665
0.002294 0.000872 0.165730
0.033195 -0.046631 -0.330581
-0.055830 -0.014180 -0.367514
0.026422 -0.050972 -0.287255
-0.024317 -0.051844 -0.240957
-0.024981 0.027262 -0.076892
-0.044787 0.035599 -0.409368
-0.002980 -0.004624 0.132552
-0.016890 -0.040819 -0.192285
0.007967 0.037415 -0.190970
-0.056620 0.008177 -0.423062
-0.030312 -0.048844 -0.291162
-0.007036 0.003210 0.037736
-0.037289 -0.008928 -0.173391
0.010016 -0.056378 -0.405335
-0.047424 -0.032163 -0.397933
0.043173 0.037701 -0.478263
-0.018130 0.033768 -0.128993
0.022987 -0.052395 -0.289026
0.047347 -0.032262 -0.411976
-0.056885 0.006167 -0.484276
0.048814 -0.014872 -0.500000
-0.032287 -0.047328 -0.465522
-0.004773 -0.004130 0.235458
0.043672 0.037051 -0.296874
-0.007844 0.008955 -0.192285
-0.040386 0.041114 -0.415996
0.009354 -0.035151 -0.192285
-0.019963 -0.053647 -0.295111
0.054235 -0.018542 -0.407289
-0.010072 0.056371 -0.457462
-0.011672 -0.047230 -0.500000
-0.019746 0.002810 -0.192285
0.052073 0.023763 -0.247860
0.001091 -0.003489 0.215480
-0.024492 0.051771 -0.287155
0.055679 -0.015056 -0.248828
0.033930 -0.046067 -0.235379
-0.014493 0.006196 -0.076892
0.002110 0.000204 0.296257
0.005234 0.007872 -0.076892
0.024815 0.016948 -0.500000
-0.055344 0.015868 -0.414000
0.057110 -0.004449 -0.257277
-0.000537 -0.049977 -0.500000
-0.050848 -0.026722 -0.273679
-0.037750 0.005430 -0.107718
-0.036620 -0.011246 -0.104777
0.026699 0.027581 -0.145950
-0.029292 0.049627 -0.390736
0.004612 -0.037857 -0.165986
0.004881 -0.030786 -0.500000
0.057530 -0.001260 -0.424566
-0.050983 0.026395 -0.281852
-0.003014 -0.004615 0.222007
-0.006502 0.005148 0.181066
0.012268 -0.056081 -0.291699
-0.052077 0.023754 -0.285559
-0.003508 0.057235 -0.379452
0.032947 0.046821 -0.331160
-0.007610 0.001131 0.341624
-0.027294 0.027074 -0.174361
0.029684 -0.049325 -0.461723
-0.033517 0.018737 -0.160672
-0.015614 -0.005885 -0.192285
-0.010576 0.009491 -0.500000
0.056953 0.005641 -0.387963
-0.043599 -0.000568 -0.192285
-0.050001 0.028767 -0.339546
-0.038587 0.042495 -0.406557
-0.017786 0.054549 -0.455969
-0.023368 -0.030138 -0.186947
0.030910 0.022360 -0.171790
-0.012232 -0.018716 -0.076892
-0.056416 0.009732 -0.227622
-0.026848 0.050796 -0.354079
-0.051281 0.025677 -0.403865
-0.044668 -0.035754 -0.443604
0.030820 -0.026091 -0.500000
-0.039095 0.042105 -0.384116
-0.021861 -0.052861 -0.296595
0.001756 -0.001079 0.342653
0.055870 -0.013871 -0.396148
0.000098 0.057684 -0.197908
0.057329 0.002785 -0.262004
0.023836 0.052043 -0.311195
-0.022717 -0.052507 -0.322005
-0.044466 -0.036018 -0.411629
-0.032669 0.006347 -0.076892
0.009388 -0.037228 -0.141151
-0.038063 -0.042896 -0.471354
0.020371 -0.032437 -0.115707
-0.044303 0.036230 -0.423050
-0.050348 -0.027929 -0.321377
0.029779 0.023834 -0.190002
0.055813 0.014305 -0.216964
0.012323 0.056074 -0.429422
0.055877 0.013821 -0.338188
0.036293 -0.044254 -0.253487
0.018242 0.023946 -0.076892
-0.056238 -0.011082 -0.294406
-0.002124 -0.004861 0.258873
-0.025426 -0.051384 -0.436849
0.034739 0.045446 -0.464953
0.033925 -0.046071 -0.223577
0.036720 -0.043926 -0.443566
-0.025168 0.051491 -0.496521
0.005001 -0.057038 -0.277570
-0.043009 0.007955 -0.192285
0.056068 0.012369 -0.432558
0.052296 0.023224 -0.196970
-0.030957 0.022300 -0.103564
-0.003071 0.005376 0.345522
0.050165 -0.028368 -0.245248
-0.020060 -0.053607 -0.446748
0.052908 -0.021747 -0.412585
-0.021454 0.004937 -0.500000
0.056725 -0.007376 -0.464549
-0.038017 0.003405 -0.121744
-0.040733 0.040847 -0.445779
-0.010855 0.001120 -0.500000
0.056698 0.007583 -0.198711
0.019962 0.053647 -0.292401
-0.050687 -0.027111 -0.290968
-0.049105 -0.000121 -0.192285
0.009975 0.037145 -0.092038
-0.020518 -0.053417 -0.469936
-0.022337 -0.052664 -0.394940
-0.013524 -0.055916 -0.305896
0.024415 0.017130 -0.192285
0.025744 0.030134 -0.192285
0.000342 -0.057652 -0.304611
0.007532 -0.056705 -0.349130
0.023071 0.030355 -0.076892
0.020207 -0.053546 -0.434685
-0.020664 -0.030314 -0.500000
0.042403 -0.038705 -0.497149
0.005905 -0.037687 -0.151764
0.018668 -0.054184 -0.326116
0.000950 0.031720 -0.192285
0.029059 -0.024774 -0.123759
0.057351 0.002619 -0.464315
0.043505 0.037269 -0.235853
0.055760 -0.014707 -0.356962
0.056513 0.008989 -0.298944
-0.013829 0.001217 -0.500000
0.031352 0.021784 -0.101095
-0.029790 -0.023821 -0.179872
0.001106 0.004224 0.014771
0.053304 0.020789 -0.467302
0.044425 0.036070 -0.332020
-0.040900 -0.040665 -0.285050
0.037313 -0.043471 -0.428739
0.033230 0.046604 -0.223710
-0.001849 -0.004936 0.103553
-0.006135 -0.003754 0.038872
-0.057491 -0.001566 -0.285336
0.012301 -0.036182 -0.140346
0.029017 0.024827 -0.080769
-0.030288 -0.023172 -0.132155
0.001296 -0.038294 -0.134037
0.055699 -0.015008 -0.321669
-0.030023 0.023517 -0.128305
0.056522 0.008922 -0.431731
-0.056384 0.009971 -0.209012
0.029513 0.049456 -0.210434
-0.044884 -0.035473 -0.213320
0.001374 -0.002465 0.238094
-0.052194 0.023473 -0.458316
0.030953 -0.048352 -0.474590
0.005908 0.056919 -0.365043
-0.022193 -0.052724 -0.263357
-0.025813 -0.014952 -0.076892
-0.050193 -0.028303 -0.499407
0.016052 0.013662 -0.076892
0.037260 0.009148 -0.110444
0.007763 0.035369 -0.076892
0.050468 0.027638 -0.324514
0.039445 0.041835 -0.412046
-0.056175 0.011563 -0.249498
0.004002 -0.050514 -0.192285
-0.013392 -0.055934 -0.494738
-0.002318 0.057391 -0.496428
-0.028997 0.049853 -0.364217
0.034675 -0.045496 -0.437332
0.050116 0.028486 -0.451548
-0.002026 -0.004888 0.335424
-0.042293 -0.038849 -0.299182
0.037917 0.004156 -0.137095
0.033191 -0.046634 -0.208624
0.042704 -0.038312 -0.350524
-0.047435 0.032148 -0.340688
0.057510 0.001413 -0.453297
-0.003140 -0.057283 -0.474208
0.031117 -0.022092 -0.103697
-0.017477 -0.054677 -0.200399
-0.041273 0.040179 -0.482708
-0.003651 -0.037984 -0.083403
0.012446 0.027963 -0.192285
-0.054266 0.018470 -0.303926
0.056368 0.010088 -0.323235
-0.029206 -0.024582 -0.147842
-0.029144 -0.049740 -0.396240
0.002360 0.003878 0.415832
0.057265 0.003278 -0.389101
0.013455 0.055925 -0.344934
-0.056379 0.010009 -0.234173
0.056164 0.011638 -0.449867
-0.052770 -0.022081 -0.394900
0.001926 -0.000463 -0.002535
0.038158 -0.002327 -0.101810
0.032800 -0.046934 -0.468512
0.040753 -0.040832 -0.333804
-0.047120 0.032558 -0.428281
0.025700 -0.015813 -0.076892
0.038800 -0.042330 -0.306500
0.035460 0.044893 -0.205840
0.035537 -0.013858 -0.178964
0.043024 0.037895 -0.303875
-0.044524 0.035941 -0.425973
0.054033 -0.019031 -0.496096
-0.037543 -0.007005 -0.092124
-0.054094 0.018885 -0.257116
-0.057193 -0.003829 -0.393647
-0.029321 -0.024433 -0.187785
0.002140 0.003938 -0.009751
-0.057198 -0.003792 -0.464068
-0.055045 0.016588 -0.300815
0.009218 -0.019042 -0.076892
0.031225 0.048143 -0.269474
-0.002885 -0.039216 -0.500000
0.010984 0.036727 -0.181508
0.055626 -0.015185 -0.499126
0.057544 -0.001157 -0.294911
0.024699 -0.008847 -0.076892
-0.057162 0.004065 -0.446294
-0.029334 -0.049595 -0.419227
0.003049 0.003610 0.011512
-0.054447 -0.018034 -0.487710
-0.047735 -0.031758 -0.424198
0.014478 -0.055791 -0.416774
-0.015168 0.055633 -0.305995
0.021125 -0.053166 -0.395015
-0.045392 0.002590 -0.192285
-0.005174 0.005956 0.014776
0.050855 0.026703 -0.366875
-0.057645 0.000398 -0.483907
-0.038399 0.000504 -0.154874
-0.056939 -0.005759 -0.213194
0.030965 0.018999 -0.500000
0.047509 0.016616 -0.192285
-0.054293 0.018405 -0.490891
-0.057252 -0.003383 -0.223680
0.008895 0.056525 -0.418643
-0.050562 -0.027411 -0.217921
0.000820 -0.004474 0.134208
-0.044238 -0.036315 -0.474236
0.048844 -0.030311 -0.484760
0.056980 0.005436 -0.226469
0.049235 -0.029801 -0.290026
-0.038411 0.000408 -0.121383
0.044625 0.035809 -0.441341
-0.033214 0.046617 -0.446691
0.001019 0.044084 -0.192285
-0.003095 0.005383 -0.065946
-0.056019 -0.012747 -0.270917
0.042813 -0.038171 -0.206654
-0.047462 -0.032114 -0.250357
-0.015638 0.022665 -0.192285
-0.030666 0.016398 -0.076892
-0.028463 0.050126 -0.216936
0.018472 0.026752 -0.192285
0.010223 -0.056351 -0.280224
-0.057375 -0.002445 -0.458907
0.057288 0.003098 -0.214810
0.024472 0.028692 -0.500000
0.005605 0.056959 -0.226179
0.049080 0.030003 -0.470640
-0.029284 0.049633 -0.266164
-0.036441 -0.044141 -0.378179
0.037295 0.008881 -0.132622
-0.002418 0.005196 0.305653
0.002188 0.057408 -0.433546
0.026945 0.004097 -0.076892
-0.010433 0.054191 -0.192285
-0.002695 -0.031445 -0.500000
-0.038164 -0.002286 -0.076972
-0.001576 0.057489 -0.485033
-0.015395 -0.034901 -0.184468
-0.048448 0.030827 -0.377358
0.015771 0.055383 -0.453186
0.024691 -0.051689 -0.453833
-0.038233 0.026381 -0.192285
0.036112 -0.012470 -0.157298
0.050579 0.027368 -0.216533
0.025923 0.051178 -0.255415
-0.006920 -0.056786 -0.379898
0.057217 0.003639 -0.370227
0.023742 0.052082 -0.300734
0.027023 0.050723 -0.423060
-0.028730 0.050016 -0.441962
0.044598 -0.035844 -0.478227
0.014700 -0.022771 -0.076892
0.057149 0.004154 -0.292690
-0.036354 -0.044208 -0.478336
-0.037915 0.004177 -0.187908
-0.011887 0.056132 -0.478170
-0.005633 -0.004542 -0.192285
-0.027355 -0.050586 -0.368147
0.002049 -0.000017 0.399013
0.003511 0.013951 -0.500000
0.015894 -0.033626 -0.192285
-0.052246 -0.023347 -0.278996
0.051056 0.025069 -0.192285
-0.007743 0.000647 -0.053157
-0.027240 -0.050633 -0.492363
-0.012903 0.055998 -0.417611
-0.030811 0.010426 -0.076892
-0.001672 0.057476 -0.382694
-0.046209 0.033746 -0.273468
0.011975 0.036317 -0.153568
0.010174 0.037063 -0.089491
0.037689 0.005890 -0.184953
0.020820 -0.053292 -0.240873
0.032747 0.046975 -0.203167
-0.051082 0.004410 -0.192285
0.046240 0.033704 -0.225948
0.016439 0.034468 -0.103491
-0.054415 -0.018111 -0.376929
0.051929 0.024109 -0.251399
-0.054996 -0.016708 -0.259481
-0.034322 -0.028633 -0.192285
-0.052614 0.022459 -0.498642
0.011645 0.056163 -0.347300
0.009554 -0.056439 -0.285363
-0.002181 0.057409 -0.389273
-0.009647 -0.053011 -0.500000
-0.020023 -0.053623 -0.304615
-0.010503 -0.018356 -0.192285
0.018203 -0.001794 -0.500000
0.057130 -0.004298 -0.212041
0.014805 0.040011 -0.192285
-0.036238 -0.012167 -0.180078
0.045548 -0.016071 -0.192285
0.030608 0.048616 -0.311599
0.024892 0.028967 -0.108253
-0.050170 0.028358 -0.289825
0.037410 0.008007 -0.126077
-0.041683 -0.039645 -0.405605
0.021779 0.031357 -0.140964
0.016651 -0.055019 -0.225019
0.052100 0.023698 -0.440905
0.005616 -0.037725 -0.105652
0.012949 -0.035913 -0.177109
-0.038060 -0.042899 -0.365573
-0.026874 -0.050785 -0.199340
-0.012404 0.056064 -0.221372
-0.006624 0.004705 0.128009
0.027837 -0.026366 -0.166265
-0.006001 0.056907 -0.250841
0.055659 -0.015105 -0.213149
-0.002312 -0.004809 0.233267
0.043362 -0.037455 -0.380798
-0.013179 0.035818 -0.094564
-0.041593 -0.039762 -0.461657
0.049125 0.021907 -0.500000
0.029610 0.049382 -0.266145
-0.055515 0.015455 -0.366104
0.035757 -0.013326 -0.108875
0.002217 0.000593 0.299082
0.051809 0.024400 -0.447410
0.020669 0.053354 -0.399159
-0.001548 -0.038261 -0.089984
-0.050674 -0.027142 -0.281035
-0.017010 0.054870 -0.295042
-0.038182 -0.002146 -0.129896
-0.056083 -0.012262 -0.240451
-0.050238 -0.028193 -0.438828
0.053619 -0.020030 -0.357589
-0.051417 -0.025348 -0.430729
0.019848 -0.053695 -0.456445
-0.056075 -0.012320 -0.233631
0.052958 0.021624 -0.482123
-0.037645 0.006226 -0.096736
0.006231 0.026742 -0.500000
0.002914 -0.021383 -0.192285
0.049040 -0.030056 -0.419306
0.045957 -0.034074 -0.424040
0.005424 -0.056983 -0.486839
-0.042885 0.038077 -0.451636
0.016782 -0.054965 -0.468228
0.037177 -0.009774 -0.183141
0.001314 -0.002682 0.069074
-0.037344 -0.008515 -0.131383
-0.024125 0.029557 -0.078036
-0.040402 0.041101 -0.365032
0.050139 0.028431 -0.311960
0.056418 -0.009708 -0.247406
0.032789 0.046943 -0.328305
-0.046079 0.033915 -0.372320
-0.055458 -0.015592 -0.270776
-0.007970 -0.017949 -0.076892
-0.005124 0.044538 -0.500000
-0.004685 -0.004154 -0.069347
-0.024991 0.051565 -0.229048
-0.037608 0.006510 -0.110706
-0.035113 0.014883 -0.141270
0.036381 -0.011820 -0.126219
0.056444 -0.009514 -0.385822
-0.020524 0.027018 -0.192285
0.056278 0.010776 -0.355042
-0.052197 0.023465 -0.363787
-0.023113 -0.052343 -0.198448
-0.007229 -0.056745 -0.424019
-0.008630 0.056560 -0.224959
-0.038292 0.001315 -0.173886
-0.054957 0.016802 -0.468730
-0.010430 0.021600 -0.192285
0.037503 0.007299 -0.146041
-0.030306 -0.000618 -0.500000
-0.035471 0.009876 -0.500000
0.031959 -0.047580 -0.339481
0.047246 0.032394 -0.444745
0.008564 -0.037337 -0.145164
-0.043462 0.037326 -0.475016
0.042476 -0.038610 -0.254493
0.056709 0.007495 -0.270311
0.013901 0.002058 -0.192285
-0.056942 -0.005732 -0.277957
-0.009354 -0.056465 -0.337142
0.045900 -0.034148 -0.410969
-0.035330 -0.044993 -0.450617
0.008400 -0.056591 -0.308917
0.048306 0.031012 -0.282251
0.055857 -0.013971 -0.328122
0.011750 0.056150 -0.277030
0.054768 -0.017257 -0.397960
0.020409 -0.029294 -0.192285
0.046326 -0.033592 -0.455038
-0.002358 -0.004796 -0.046996
-0.000055 -0.004614 -0.500000
0.037113 0.043624 -0.324200
-0.024636 -0.051712 -0.220293
-0.033217 0.046614 -0.199310
0.050058 -0.028627 -0.358220
0.001606 -0.001623 0.159034
-0.033473 -0.046418 -0.310190
-0.055571 0.015319 -0.322900
-0.041262 -0.040193 -0.416672
-0.001956 0.028252 -0.076892
-0.017445 -0.054690 -0.429921
0.005247 0.057006 -0.255575
-0.028990 -0.009298 -0.192285
0.037221 0.043542 -0.441879
-0.001690 -0.004980 -0.068416
0.040439 0.006825 -0.192285
-0.024387 0.051815 -0.268855
0.027177 0.042980 -0.192285
-0.057656 -0.000311 -0.409738
-0.055756 0.014742 -0.253008
0.037990 -0.003599 -0.156655
-0.022946 0.052412 -0.397441
-0.021141 0.053159 -0.295936
-0.056808 0.006750 -0.375389
0.028355 -0.050171 -0.403696
0.052744 -0.022142 -0.298717
0.035065 0.014996 -0.131577
-0.028815 0.049980 -0.220317
0.044692 0.035722 -0.215282
-0.037232 -0.009363 -0.141522
0.037235 -0.009336 -0.151149
-0.034108 -0.045931 -0.358165
-0.010905 0.043360 -0.500000
0.057232 -0.003524 -0.407972
-0.041121 -0.040376 -0.317537
0.052844 -0.021900 -0.256070
0.028750 0.025175 -0.107135
0.031484 -0.021613 -0.151416
-0.006260 0.034868 -0.192285
-0.017023 0.054865 -0.385941
-0.009904 0.056393 -0.432946
0.038166 0.002260 -0.139044
0.032363 0.047269 -0.193295
0.012209 0.056089 -0.299907
0.020824 0.053290 -0.437600
-0.004740 0.057073 -0.462237
0.027305 -0.034593 -0.192285
0.052613 0.022458 -0.380705
-0.048854 -0.030299 -0.223933
0.012732 -0.033254 -0.076892
-0.041132 0.040363 -0.306648
-0.052574 0.022554 -0.343078
0.017883 -0.054509 -0.358872
-0.026463 0.050955 -0.331822
0.035997 0.044481 -0.271720
0.003041 0.003579 0.273528
-0.003024 0.057299 -0.243480
-0.036881 0.043803 -0.217251
-0.016016 -0.013697 -0.076892
-0.047395 -0.032200 -0.436283
0.044470 -0.023186 -0.500000
-0.048338 -0.020615 -0.192285
-0.055067 0.016536 -0.192445
-0.016905 -0.034275 -0.094943
0.013314 0.052594 -0.500000
0.012592 -0.056039 -0.279016
-0.014523 0.055785 -0.237762
0.012492 0.041878 -0.500000
-0.031087 -0.008039 -0.500000
0.056997 -0.005310 -0.416433
0.001950 0.057440 -0.479264
-0.000597 0.004693 0.268993
-0.047419 -0.032169 -0.271203
0.018988 0.027066 -0.076892
-0.029664 -0.049341 -0.274845
0.047926 0.031508 -0.383564
0.011137 -0.056230 -0.340380
-0.055752 -0.014776 -0.315858
-0.010742 0.056282 -0.247235
0.043495 -0.037282 -0.402124
-0.056168 -0.011614 -0.251469
0.046786 -0.032994 -0.487035
0.009672 -0.056423 -0.447626
0.030353 0.048812 -0.405276
0.033901 -0.046089 -0.293482
0.048162 0.008895 -0.192285
-0.002162 -0.057412 -0.217346
-0.052457 0.022838 -0.305249
0.040772 0.040817 -0.246988
0.031936 0.047597 -0.339201
0.037080 -0.043650 -0.440852
0.036793 -0.043870 -0.292661
0.038935 0.042226 -0.400770
0.020573 -0.053394 -0.227098
0.004078 -0.037928 -0.144499
0.035621 0.044770 -0.453591
0.001987 -0.000243 0.075933
0.025287 0.035416 -0.192285
0.057596 -0.000761 -0.197158
-0.001137 -0.005133 0.272082
-0.022598 -0.030729 -0.109186
-0.039320 0.041932 -0.443527
-0.006735 0.056810 -0.222849
-0.000799 -0.057591 -0.430889
-0.002934 -0.004637 0.169140
0.013783 -0.055882 -0.256919
-0.006998 0.003350 -0.040916
0.036781 0.010854 -0.118701
0.033294 -0.019254 -0.153896
-0.005200 -0.037780 -0.130920
0.057428 -0.002036 -0.266980
0.042987 -0.037944 -0.460254
0.057173 -0.003976 -0.270408
0.052563 -0.022579 -0.476847
-0.018146 -0.054400 -0.317453
0.001104 0.057551 -0.470114
0.026385 0.050987 -0.216875
0.022393 0.019983 -0.500000
-0.010570 -0.056305 -0.478281
0.001360 -0.002515 0.010436
0.052094 -0.014543 -0.500000
0.041994 0.039238 -0.470598
-0.037651 0.006182 -0.152361
-0.015747 -0.055394 -0.238185
0.004270 -0.037902 -0.121221
0.043981 0.036648 -0.342982
-0.056349 0.010238 -0.302792
-0.017236 0.007596 -0.076892
0.057144 0.004195 -0.467463
-0.036667 0.043967 -0.270164
-0.014120 -0.055838 -0.275815
-0.054104 -0.008076 -0.500000
-0.039170 -0.042047 -0.254925
-0.056305 0.002878 -0.500000
0.017836 0.054528 -0.489521
-0.055288 0.016003 -0.342821
-0.050480 -0.027611 -0.396950
0.028712 0.050023 -0.394423
-0.056361 -0.010145 -0.306802
-0.057317 0.002887 -0.393666
-0.016129 -0.055235 -0.231287
0.016482 -0.055089 -0.291714
0.029941 -0.023624 -0.185230
0.051184 -0.025909 -0.466074
0.020330 0.053495 -0.307505
-0.006754 -0.003583 0.330244
0.055231 0.016137 -0.498284
-0.036963 -0.043740 -0.294013
-0.048411 -0.030877 -0.489082
-0.004990 0.001215 0.458605
-0.045752 0.034342 -0.444653
-0.044525 -0.035941 -0.399739
-0.017331 0.013524 -0.076892
-0.032962 0.019687 -0.093387
-0.041057 -0.040460 -0.291531
-0.037767 0.043123 -0.395186
-0.007401 -0.003405 0.286517
0.034113 -0.017294 -0.088378
-0.057573 0.000942 -0.288588
-0.001100 0.057552 -0.375088
0.057450 0.001871 -0.393442
-0.009734 -0.056415 -0.318693
0.056968 0.005532 -0.343457
0.010413 -0.024515 -0.500000
0.043132 0.037755 -0.233248
-0.040414 -0.041092 -0.199831
-0.034102 -0.045936 -0.334205
0.019084 0.001672 -0.500000
-0.031961 0.020993 -0.184582
-0.032088 -0.047481 -0.383113
-0.001857 -0.004934 0.241376
0.038064 0.003035 -0.120068
0.024999 0.005234 -0.192285
0.041386 -0.040030 -0.303283
0.035841 0.013124 -0.155635
0.031878 -0.021100 -0.082426
-0.041962 0.031105 -0.192285
0.052204 0.023445 -0.292125
0.052924 0.021708 -0.339303
0.002248 0.057400 -0.291738
0.046474 -0.033400 -0.427082
-0.028655 -0.050047 -0.437641
-0.006134 -0.003754 -0.074286
-0.048745 0.030441 -0.240630
0.011377 -0.056199 -0.233816
0.043800 -0.036885 -0.332628
-0.029435 -0.024284 -0.137285
-0.039961 -0.002355 -0.192285
-0.016483 -0.055089 -0.315035
0.023928 0.052005 -0.213038
0.028046 -0.050299 -0.390307
-0.004854 -0.057058 -0.316755
0.056584 0.008451 -0.405655
-0.003197 0.057276 -0.348147
-0.031221 0.048146 -0.379116
-0.021826 0.052876 -0.282136
-0.026701 0.012374 -0.500000
0.055766 0.014664 -0.244312
-0.048858 -0.030293 -0.468798
0.028202 0.050234 -0.390438
-0.006136 -0.003754 0.411787
-0.008684 -0.002765 0.307013
0.002457 0.003851 0.194975
0.047856 -0.031598 -0.392689
0.051480 0.025193 -0.285402
-0.038570 0.042507 -0.439554
0.001997 0.057434 -0.239578
0.000677 0.000110 0.456491
0.035734 -0.044683 -0.479670
0.032958 -0.046813 -0.212704
0.041233 0.040229 -0.213764
0.001794 0.004034 0.249463
-0.024719 -0.051678 -0.297976
0.055930 -0.013419 -0.436476
-0.039726 -0.041621 -0.305818
-0.020261 0.053524 -0.365687
-0.003545 -0.004469 -0.074896
0.003569 -0.022469 -0.500000
-0.024903 0.051601 -0.239865
-0.042592 0.038460 -0.287482
0.056690 -0.007640 -0.307314
0.026021 0.032956 -0.192285
-0.003633 0.005531 0.318571
-0.057335 0.002749 -0.255163
0.009803 0.056406 -0.351501
-0.032921 -0.018964 -0.500000
0.031414 -0.047998 -0.470811
-0.007598 0.001173 0.123253
0.002242 -0.048893 -0.500000
-0.005421 -0.030442 -0.500000
-0.015093 0.009550 -0.192285
0.033483 -0.046410 -0.367782
-0.015089 0.035028 -0.128487
-0.002139 -0.057415 -0.213269
-0.012050 0.056110 -0.446800
-0.006529 0.005049 0.243035
0.036829 0.010737 -0.136937
0.049314 0.029698 -0.486074
0.037552 -0.006927 -0.120937
-0.052101 0.023696 -0.445547
0.003587 0.037992 -0.136346
-0.053937 -0.019264 -0.347913
0.042023 -0.039200 -0.291709
-0.034840 -0.045369 -0.342667
-0.020321 -0.032476 -0.098830
0.056530 -0.008857 -0.432583
0.001504 0.004114 0.163512
0.005844 0.056927 -0.283100
-0.007626 -0.014701 -0.192285
0.034185 -0.045871 -0.248583
-0.004889 -0.037821 -0.087420
-0.013411 -0.055931 -0.313215
-0.046538 -0.033317 -0.439529
-0.029637 -0.049362 -0.260007
-0.045297 -0.034934 -0.355897
-0.056288 -0.010706 -0.388532
0.016575 -0.055050 -0.376671
-0.056970 -0.005526 -0.362542
0.020925 -0.032012 -0.099986
-0.007962 -0.000146 0.054583
-0.006853 0.003874 0.279954
0.056595 -0.008368 -0.325755
0.034247 0.045824 -0.212209
-0.016919 0.054908 -0.357092
-0.057188 0.003866 -0.342408
-0.009415 0.037225 -0.100393
0.050989 0.026379 -0.316906
0.020977 0.031972 -0.178631
-0.047902 -0.031539 -0.286796
-0.026040 0.051130 -0.400386
-0.055516 -0.015453 -0.405791
0.029366 -0.018528 -0.192285
0.000567 0.004372 0.158441
0.019233 0.053949 -0.267925
-0.057276 0.003196 -0.194814
-0.010981 0.036729 -0.093516
0.043795 -0.036892 -0.449651
-0.033112 -0.019492 -0.173462
0.011939 0.056125 -0.272753
0.025792 0.006369 -0.076892
0.018570 0.054224 -0.280564
0.011653 0.056162 -0.303614
-0.057587 -0.000832 -0.407170
0.046521 0.033338 -0.333897
-0.002305 0.038161 -0.161153
-0.000781 0.004744 0.024757
-0.050820 -0.026789 -0.361815
-0.046621 -0.033209 -0.389965
-0.003687 -0.001250 0.478484
0.035195 0.014683 -0.135758
-0.004704 0.005827 0.119367
-0.032697 -0.047014 -0.327410
0.020028 -0.053620 -0.356542
-0.003598 -0.004115 0.421106
-0.038266 0.001508 -0.099141
-0.052560 0.022590 -0.489256
0.006212 -0.056879 -0.416535
0.038942 0.042221 -0.363454
0.035025 0.015094 -0.173760
-0.006319 -0.037633 -0.181294
0.035229 0.014601 -0.109587
-0.003650 -0.037984 -0.116121
-0.053386 -0.001173 -0.500000
-0.015897 -0.055186 -0.192285
-0.050619 -0.027274 -0.226648
-0.000118 0.034281 -0.192285
-0.057628 -0.000525 -0.209711
-0.033686 -0.018329 -0.123196
0.002009 -0.038200 -0.165004
-0.024056 0.021438 -0.192285
0.037440 0.043373 -0.470097
0.053367 0.020638 -0.400815
-0.055934 0.013388 -0.237763
0.027818 -0.050393 -0.236019
-0.057036 0.005021 -0.436711
-0.038008 0.042938 -0.298508
-0.004592 -0.057092 -0.495827
0.002945 0.003231 0.439200
-0.008576 -0.002372 0.365532
-0.006539 0.005011 0.160490
0.027456 0.024723 -0.076892
-0.052213 -0.023427 -0.261516
0.057492 0.001554 -0.460439
-0.022243 -0.031002 -0.168425
-0.045836 0.034232 -0.460721
-0.037812 -0.004959 -0.143566
0.009246 0.037247 -0.165957
-0.016614 0.055034 -0.434785
0.057372 -0.002463 -0.353683
0.042846 0.038128 -0.214550
0.023006 0.052387 -0.241030
-0.041645 0.039694 -0.372369
0.049940 -0.028883 -0.250140
0.002156 0.000370 0.318038
0.044419 0.018937 -0.192285
0.011136 0.009978 -0.500000
0.014645 -0.055768 -0.437079
0.037970 -0.042967 -0.464769
0.025520 -0.051345 -0.460291
-0.000765 -0.005235 0.139490
-0.021676 0.052938 -0.488336
0.057238 0.003484 -0.281102
-0.039026 -0.042157 -0.451156
0.036884 0.043801 -0.475516
-0.054254 0.018499 -0.198787
-0.019514 -0.033096 -0.159150
-0.057449 -0.001886 -0.272224
-0.029951 -0.049121 -0.253793
0.043751 0.036949 -0.199778
0.014011 0.055852 -0.433044
0.057685 0.000087 -0.336280
0.010514 0.056312 -0.366822
0.049077 0.030007 -0.480074
0.003956 0.057176 -0.383056
-0.050605 -0.027309 -0.462663
0.043246 -0.037606 -0.406117
-0.025075 -0.029696 -0.192285
0.021054 0.016201 -0.076892
0.057142 0.004211 -0.229456
-0.048471 -0.030798 -0.485692
-0.032834 -0.046909 -0.373927
0.045202 0.035057 -0.264653
0.038265 -0.042741 -0.196097
-0.052878 0.009174 -0.500000
0.051460 0.025242 -0.469667
0.054361 -0.018238 -0.489287
-0.023414 -0.043484 -0.500000
0.054655 -0.017528 -0.439724
0.054754 -0.017290 -0.420218
-0.006795 0.004083 0.246754
-0.008344 -0.001531 0.191101
0.054358 -0.018245 -0.481444
0.020225 0.032549 -0.124602
-0.040482 -0.041040 -0.250708
0.024532 -0.051754 -0.446569
-0.032609 0.047081 -0.478745
0.046078 -0.033916 -0.350890
0.018964 0.033422 -0.177186
-0.001464 0.057504 -0.435791
-0.049099 0.029979 -0.480075
0.001148 -0.003283 -0.028514
0.002878 0.003735 -0.013513
-0.038449 -0.000124 -0.117018
-0.006340 0.056862 -0.491496
0.052853 -0.021878 -0.471391
-0.056693 -0.007623 -0.471540
-0.017398 -0.054710 -0.463759
-0.036208 -0.012239 -0.128956
-0.015655 -0.055432 -0.496848
-0.027055 -0.050710 -0.394474
0.016790 0.054961 -0.215396
-0.022042 -0.052786 -0.202966
-0.024604 0.051725 -0.225037
0.002083 -0.038190 -0.154717
-0.037953 -0.003885 -0.164916
-0.047761 -0.031724 -0.230912
0.013601 0.042381 -0.192285
-0.053182 0.021088 -0.245316
-0.046358 -0.033552 -0.395994
0.020117 -0.044996 -0.192285
0.031042 0.016745 -0.192285
0.015822 -0.055362 -0.413513
0.045356 0.034857 -0.425103
-0.056647 -0.007972 -0.313164
0.014999 -0.055703 -0.394027
-0.007221 0.002539 0.086573
0.036252 -0.029664 -0.192285
0.034860 -0.045354 -0.467562
-0.038352 -0.042675 -0.335015
0.051927 0.001674 -0.500000
-0.022408 0.052635 -0.213336
0.021292 0.018356 -0.192285
0.044776 -0.035612 -0.336719
-0.054182 0.018673 -0.231186
-0.007582 -0.003355 0.148460
-0.005286 -0.037769 -0.102153
0.056607 -0.008271 -0.337410
0.027471 0.018564 -0.076892
-0.005417 -0.056984 -0.447904
-0.001611 -0.022904 -0.500000
-0.024541 0.051751 -0.403446
-0.008234 0.056613 -0.227734
-0.038136 0.002498 -0.117569
0.039764 0.041590 -0.198581
0.051139 -0.026018 -0.419286
-0.047636 0.004153 -0.500000
-0.051051 0.026231 -0.268119
-0.034157 0.045893 -0.476586
0.037495 -0.007360 -0.086308
0.011802 0.056143 -0.477492
-0.020226 -0.053538 -0.300595
-0.006728 0.003725 0.389816
0.027636 0.050469 -0.402398
0.037744 0.005472 -0.174575
-0.017572 -0.033999 -0.186772
-0.035937 0.012894 -0.094816
0.040621 0.040933 -0.426420
-0.033110 -0.019496 -0.165512
-0.026739 -0.050840 -0.402890
-0.033012 -0.001742 -0.500000
-0.005263 -0.003995 0.288101
-0.018724 -0.033522 -0.189460
-0.044809 0.020342 -0.192285
-0.008862 -0.056530 -0.492992
-0.015047 -0.055684 -0.302867
0.028933 -0.049901 -0.398188
0.015890 0.032901 -0.192285
-0.055180 0.016264 -0.483225
-0.030464 -0.048727 -0.243189
-0.056118 -0.011992 -0.403249
0.013694 -0.027203 -0.500000
0.008832 -0.056534 -0.342284
-0.001989 -0.004898 0.010771
-0.017384 -0.054716 -0.254588
-0.024543 0.051750 -0.422933
-0.038194 0.002059 -0.145559
-0.021485 -0.053017 -0.371407
0.042876 0.038088 -0.246150
-0.044903 -0.035448 -0.471219
0.021911 0.010743 -0.192285
-0.055233 -0.016135 -0.330104
0.017196 0.054793 -0.392892
-0.038750 -0.042369 -0.286761
-0.044115 -0.016790 -0.500000
-0.056908 -0.005993 -0.267024
0.014101 0.055840 -0.231901
0.036615 -0.044007 -0.225434
0.030111 -0.048997 -0.440164
-0.003151 0.005398 -0.029033
-0.002160 0.005125 -0.046965
0.047043 0.032658 -0.250796
0.048267 0.031063 -0.425776
-0.023851 -0.052037 -0.324538
-0.007338 -0.033355 -0.076892
-0.010373 -0.036981 -0.155519
0.021361 -0.018013 -0.500000
0.035434 -0.014106 -0.128027
-0.056657 -0.007902 -0.331816
0.018523 0.054244 -0.284367
-0.023002 0.052389 -0.227695
-0.023094 -0.052350 -0.292938
-0.047017 0.032693 -0.278255
-0.057003 -0.005275 -0.475218
0.036117 0.012457 -0.104258
0.056796 -0.006840 -0.371688
0.016851 0.054936 -0.327894
-0.025453 0.051373 -0.236403
-0.000040 0.032087 -0.500000
-0.057572 -0.000947 -0.332433
0.013787 -0.055882 -0.439550
-0.042206 -0.038962 -0.220958
-0.020680 -0.053350 -0.219079
0.057221 -0.003612 -0.454361
-0.043304 -0.037532 -0.390237
-0.008465 -0.001969 0.394920
-0.023696 -0.052101 -0.365259
0.038157 0.002332 -0.101658
-0.030937 -0.048364 -0.317619
-0.022295 0.052681 -0.198966
0.013113 -0.055970 -0.390230
0.000192 0.004476 0.276435
-0.027669 -0.050455 -0.234092
-0.046723 0.013918 -0.192285
-0.027957 0.032355 -0.192285
0.053847 -0.019480 -0.208977
0.057532 0.001245 -0.269242
0.036092 -0.044408 -0.419560
-0.022173 0.031055 -0.149793
-0.052813 0.021977 -0.210576
-0.006903 0.003692 0.239998
-0.000479 0.057633 -0.236349
0.040413 -0.041092 -0.453152
0.054949 0.016820 -0.257057
0.044316 -0.036212 -0.373261
0.053943 0.019247 -0.239618
-0.015691 -0.051595 -0.500000
0.033834 -0.005196 -0.076892
-0.014812 -0.001858 -0.500000
-0.001564 -0.005015 -0.062712
-0.046879 -0.032873 -0.385088
-0.046059 -0.016137 -0.192285
0.034405 -0.021853 -0.192285
-0.023113 0.052343 -0.393387
-0.021963 -0.013986 -0.192285
-0.038339 -0.016450 -0.192285
-0.035043 0.042326 -0.192285
0.057627 0.000528 -0.310569
0.001830 0.004024 -0.052930
0.025264 0.015076 -0.076892
0.026274 0.012732 -0.192285
0.032220 -0.020653 -0.106513
0.018436 -0.017755 -0.076892
0.017664 -0.022949 -0.192285
-0.008079 -0.003218 0.240380
0.027054 0.050710 -0.417254
0.029653 0.049349 -0.289181
0.010591 0.036890 -0.173439
-0.000394 -0.019372 -0.192285
-0.006078 0.038816 -0.500000
-0.035744 -0.013360 -0.134920
0.038196 0.042794 -0.497633
0.023732 0.014162 -0.192285
0.006933 0.045712 -0.500000
-0.032579 0.047104 -0.410762
-0.042266 -0.010200 -0.192285
0.000619 0.004358 0.372259
-0.017969 -0.025977 -0.076892
0.040964 0.040580 -0.206996
0.037222 -0.009437 -0.095250
0.008900 0.056525 -0.291453
-0.007912 0.000034 0.346254
0.002866 0.002947 -0.067671
-0.051672 -0.024733 -0.463086
-0.006203 0.006232 0.080355
0.010328 0.036999 -0.117799
0.029433 -0.049518 -0.385993
-0.057384 0.002377 -0.464463
-0.030751 -0.014043 -0.500000
0.055473 0.015555 -0.413537
-0.038364 0.000767 -0.160781
0.013952 0.055860 -0.297376
-0.017795 0.046300 -0.192285
0.025155 0.046844 -0.192285
-0.001874 0.057450 -0.280428
0.039463 0.041822 -0.226715
0.039556 -0.021823 -0.500000
0.024358 -0.029378 -0.077589
-0.040243 0.041223 -0.355872
-0.054482 -0.017948 -0.192953
0.027936 0.019060 -0.192285
0.040927 -0.040628 -0.225793
0.007579 -0.032997 -0.192285
-0.001840 -0.004939 0.125400
0.002345 0.057388 -0.246200
-0.038491 0.042568 -0.474537
0.014705 0.035186 -0.145984
0.049047 -0.030047 -0.415531
-0.000861 0.004875 -0.076892
0.007893 0.056657 -0.254152
0.041638 -0.039702 -0.476480
0.041848 -0.027619 -0.500000
0.001094 -0.057553 -0.238274
0.038402 -0.042636 -0.276733
0.032465 -0.047192 -0.327924
0.008398 0.029351 -0.500000
-0.028969 0.019210 -0.076892
0.045482 0.034693 -0.319116
0.013552 -0.055912 -0.236472
-0.004747 0.003793 -0.192285
-0.036471 -0.044118 -0.207015
-0.037251 -0.009218 -0.112334
-0.019105 -0.054003 -0.465629
0.018888 -0.054092 -0.245473
0.019626 0.011571 -0.500000
-0.037096 0.010096 -0.102969
-0.006554 -0.056834 -0.235911
0.013645 0.048694 -0.500000
-0.013664 -0.035618 -0.117052
0.043684 0.037035 -0.453973
-0.057352 -0.002621 -0.211202
-0.029198 0.049699 -0.367294
-0.001596 0.040583 -0.192285
0.011563 0.036488 -0.081572
0.056487 -0.009184 -0.279090
0.041591 -0.039763 -0.288585
0.038756 0.042364 -0.277930
0.048883 0.030260 -0.208353
0.056611 -0.008239 -0.234354
0.005475 0.017235 -0.192285
0.019177 -0.033334 -0.130346
0.028884 0.025000 -0.156617
0.002960 0.003286 0.294845
-0.012316 0.056075 -0.377896
0.020849 -0.027982 -0.076892
0.034325 0.045764 -0.246212
0.037777 0.005222 -0.130437
0.008297 -0.031345 -0.076892
0.040419 -0.041088 -0.264137
0.029197 -0.049699 -0.317098
0.050751 0.026954 -0.224945
-0.000219 -0.057668 -0.202283
-0.053297 -0.020810 -0.325986
-0.016830 -0.045157 -0.500000
-0.019040 -0.015713 -0.192285
-0.024206 -0.051890 -0.238333
0.037869 -0.004518 -0.152658
-0.036597 -0.001571 -0.192285
0.005115 0.057023 -0.343123
0.057441 -0.001936 -0.374521
-0.002024 -0.057430 -0.294896
-0.019089 -0.034200 -0.192285
0.012249 -0.017210 -0.192285
0.003039 0.003571 0.121757
0.055092 -0.016474 -0.369801
0.048546 -0.030700 -0.208542
-0.055397 -0.015739 -0.247665
0.034432 0.033485 -0.192285
-0.056893 0.006109 -0.327403
0.007990 -0.013290 -0.500000
-0.005748 0.006114 -0.005750
0.039528 0.041772 -0.250719
0.040381 -0.041117 -0.214002
0.039822 0.041546 -0.192367
-0.038281 0.001393 -0.102051
